# .PCD v0.7 - Point Cloud Data file format
VERSION 0.7
FIELDS x y z
SIZE 4 4 4
TYPE F F F
COUNT 1 1 1
WIDTH 1642
HEIGHT 1
VIEWPOINT 0 0 0 1 0 0 0
POINTS 1642
DATA ascii
-7.2944498 -212.728 45.562599
-16.6105 -174.295 43.904301
-19.081499 -215.58701 46.467602
-7.5723 -214.384 47.6152
-23.570499 -221.494 45.918301
-23.5259 -227.774 45.0989
-16.244499 -222.254 43.5532
-5.8555198 -190.064 51.779701
-5.3264298 -175.35001 53.146999
-25.582701 -205.834 43.340599
-7.6905999 -214.698 56.105598
-18.2649 -191.946 48.8988
-24.114401 -235.786 44.441898
-18.003599 -178.61 53.174599
-4.78719 -177.27901 45.247002
-18.965799 -213.55299 44.039501
-6.87988 -229.37399 44.226398
-22.5049 -228.776 43.926998
-5.6870899 -175.758 52.952099
-18.545799 -212.59 43.5495
-14.1589 -182.717 43.2855
-6.8243198 -204.095 47.212002
-8.20473 -220.98599 58.374199
-16.5987 -216.786 44.723099
-13.9674 -179.321 43.169102
-1.88881 -193.00101 50.270599
-9.0612402 -239.284 57.293499
-6.3676701 -230.785 44.026199
-19.557501 -212.65601 56.206299
-0.287442 -178.194 49.7701
-13.5875 -223.12 43.804001
-7.79813 -207.186 43.833401
-5.3874898 -179.28101 55.6217
-17.872101 -189.823 54.054199
-6.2663898 -199.828 44.926601
-5.4078698 -182.049 43.320202
-5.7350998 -182.386 56.160801
-20.415001 -205.84399 43.5368
-6.4807401 -196.26401 53.5378
-12.4752 -188.27699 43.3391
-2.16521 -223.424 46.114799
-15.2602 -230.08099 44.046299
-3.6898201 -172.66299 53.671501
-9.0272799 -240.25 55.803299
-18.685699 -197.702 51.156399
-5.2040801 -175.94 48.889
-22.461 -225.132 43.686401
-20.055901 -221.76401 57.6478
-2.9186101 -226.588 43.905201
-11.5339 -214.881 44.3055
-5.8201599 -182.463 57.427502
-1.08038 -225.754 44.635601
-5.3371601 -182.634 44.791599
-22.5462 -196.93401 48.253899
-19.173201 -199.8 54.999401
-18.427799 -195.35699 47.434601
-5.2332902 -184.614 52.925301
-6.56357 -183.51601 43.292702
-5.05199 -170.265 53.263302
-18.4118 -204.237 49.397301
-7.0879402 -174.543 44.303101
-6.0521898 -184.933 43.316299
-18.799601 -199.811 55.331902
-4.1370201 -220.96201 47.062801
-22.9007 -203.68401 43.805901
-7.5258698 -187.702 43.9561
-23.4632 -236.463 48.323299
-17.977699 -193.164 52.2034
-7.3826199 -232.45799 44.216
-10.8202 -223.633 43.767101
-14.1834 -203.09801 43.431599
-25.094101 -233.024 43.679798
-18.8736 -208.41901 55.206799
-20.525299 -216.528 44.427898
-6.6168399 -203.17799 52.820499
-16.8291 -172.845 56.574699
-22.4478 -206.44099 43.438
-18.7642 -210.82001 46.263
-17.2931 -186.151 44.4207
-8.6013098 -203.127 43.6768
-4.3393302 -171.92799 49.410801
-11.4626 -218.04601 45.292801
-19.202 -211.869 55.755199
-20.937099 -232.041 44.111801
-1.39174 -182.972 49.9753
-23.623501 -206.57899 43.336899
-22.6756 -184.07401 49.640301
-1.9553 -194.74899 50.371399
-16.625099 -168.509 48.896999
-4.4941602 -168.88699 43.895
-16.7363 -166.94701 44.431801
-3.0471699 -220.314 47.054401
-18.6266 -201.80499 44.207802
-9.0568399 -224.696 43.786999
-5.60392 -183.019 51.797401
-27.120199 -220.52 45.764999
-18.039 -208.089 43.5051
-20.848301 -232.996 44.225899
-6.3116698 -200.896 45.321098
-5.5169702 -180.31 49.241901
-13.9177 -171.931 43.2094
-6.8177099 -208.674 57.147499
-22.3822 -224.94901 47.089802
-22.738501 -206.541 44.406101
-5.5228 -185.38499 43.526901
-4.4105101 -196.02499 44.987801
-18.947599 -210.155 54.121101
-19.3584 -221.367 48.495998
-17.3004 -179.92 54.591
-2.30146 -177.14999 45.340302
-8.8107595 -172.25101 44.2845
-10.2777 -176.022 43.313499
-6.8129501 -184.07401 43.726601
-13.5749 -187.304 43.543301
-11.1458 -218.685 44.900002
-17.3342 -186.517 46.676399
-15.6911 -190.358 43.319199
-17.0898 -175.095 54.303398
-5.9496102 -186.511 55.2729
-5.48878 -166.78999 44.193802
0.76926798 -186.07201 46.5368
-8.0033102 -219.888 47.7733
-4.8870802 -168.026 52.824001
-10.1318 -225.804 43.778198
-12.4907 -181.842 43.108501
0.53057301 -172.08 47.187901
-19.1161 -202.806 51.565498
-27.402 -236.205 44.382599
-3.5850301 -187.371 53.7444
-20.068001 -211.80499 45.223301
-16.9163 -176.101 56.8237
-17.0849 -183.366 44.4515
-18.967699 -210.17799 52.1479
-7.2227302 -191.493 43.507702
-26.784401 -227.591 44.079899
-7.0293698 -214.27 48.7341
-24.9848 -222.11 45.0144
-0.60410702 -231.397 44.783501
-19.2885 -224.036 43.606201
-9.7238703 -180.286 42.803799
-2.61868 -226.077 43.838799
-17.323999 -182.558 50.728401
-9.1604996 -183.202 43.032902
-8.1554098 -220.832 56.9809
-6.99301 -193.70399 43.648399
-7.05339 -215.286 48.014702
-3.0090001 -183.429 45.495899
-13.4416 -197.237 43.378601
-8.60672 -167.108 43.175499
-18.330601 -200.73 50.4305
-7.8219099 -221.44099 49.315201
-21.0889 -210.258 43.894699
-5.86623 -190.60899 44.6852
-26.173 -225.883 48.4986
-5.4102802 -177.368 54.6171
-18.0996 -190.35899 47.915501
-11.1626 -208.174 43.584599
-8.7360897 -233.485 56.884899
-22.817301 -204.653 43.395802
-19.850401 -221.756 53.372601
-18.5436 -202.08 45.2822
-17.697599 -193.89101 45.684601
-16.0742 -165.511 46.6782
-5.6254902 -190.729 44.233501
-16.0688 -209.787 44.2728
-5.48838 -176.345 56.962799
-7.3795199 -205.534 52.770199
-9.2881498 -167.636 43.078701
-8.6664104 -233.799 51.169102
-22.0749 -219.117 44.016201
-17.492701 -190.71001 42.4426
-25.2722 -225.827 53.236198
-16.767599 -176.353 49.969501
-13.0338 -198.32001 43.394402
-8.2435503 -192.04401 43.406601
-7.1613798 -207.375 51.116001
-17.747 -191.694 50.333099
-5.60778 -186.714 52.1147
-6.6430602 -214.965 48.2178
-7.8508501 -221.38699 48.727402
-20.798401 -202.786 44.156399
-7.4101901 -210.453 56.828602
-6.9872799 -174.358 42.972599
-2.30913 -183.186 49.945599
0.208141 -173.17799 47.0937
-17.197701 -179.37601 43.805901
-5.5241699 -183.179 48.385601
-4.0674701 -184.742 48.130798
-19.725 -195.86301 48.082802
-25.667999 -234.34801 44.182098
-16.069799 -165.44299 43.8522
-21.924999 -214.63 45.547901
-19.118 -210.149 55.1675
-26.226299 -225.841 47.418499
-16.335199 -173.155 42.965199
-12.5272 -227.62801 43.854599
-19.405199 -215.61301 48.6409
-7.1273999 -205.658 55.040298
-5.4924502 -183.252 51.043301
-19.1136 -224.522 43.627399
-6.4556398 -232.468 52.696602
-18.6884 -195.13499 55.640202
-0.407444 -179.823 50.409801
-10.8268 -171.05 43.016499
-18.134399 -190.15601 44.9501
-5.2101798 -188.961 46.435299
-18.344801 -201.715 51.062599
-8.8225803 -236.91299 58.9109
-20.822399 -216.804 45.883099
-16.6126 -172.086 49.449902
-16.889 -184.83501 43.058899
-6.04843 -193.46001 45.522301
-7.5863299 -232.213 54.933498
-20.0406 -214.09 45.917198
-5.4562001 -183.646 55.098801
-15.7961 -223.411 43.6763
-14.1738 -175.87801 43.2309
-7.3983898 -214.673 42.304001
-6.1081901 -188.71201 56.1325
-6.0815101 -176.05299 43.403
-5.1008902 -182.608 56.0672
-19.1264 -231.355 44.053699
-7.6370702 -219.245 44.692001
-26.806101 -229.81 44.332199
-19.749399 -205.864 43.510601
-15.9355 -192.231 43.626301
-7.93186 -217.66701 58.876099
-4.6012201 -194.183 45.5527
-14.7631 -206.145 43.4445
-21.353901 -185.88499 49.965401
-5.4950099 -182.64 49.8717
-6.1398501 -189.36501 57.2897
-21.4347 -226.047 43.714298
-18.796801 -195.36099 48.409801
-4.6680899 -170.50301 46.692001
-13.6069 -217.457 43.819698
-17.388 -186.496 48.393002
-19.4058 -210.56599 57.420502
-4.0264401 -178.80099 44.826099
-14.056 -218.621 43.760502
-17.657801 -191.38699 49.432701
-7.96139 -221.358 51.081699
-12.4834 -211.422 43.603199
-18.068701 -196.72 48.017799
-13.0216 -179.42599 43.211498
-18.6043 -182.399 53.092098
-16.702299 -169.336 53.7033
-6.4267802 -192.25999 55.080299
-16.7649 -171.774 47.9319
-15.469 -193.96201 43.5975
-2.4655299 -231.688 50.381001
-20.9541 -223.345 46.259899
-9.1819897 -237.653 58.6003
-16.7397 -218.078 44.754299
-18.773701 -206.709 55.138199
-16.3981 -219.88499 44.848999
-17.308399 -186.30499 47.2286
-25.2379 -201.97 43.659901
-8.2966499 -232.599 56.706501
-22.686001 -198.06599 48.999901
-23.1504 -205.88499 43.387199
-18.2173 -200.271 49.432301
-9.4949398 -187.048 43.891399
-0.31178901 -226.08299 43.851101
-19.857901 -221.722 54.267899
-13.5855 -182.105 44.044601
-18.6882 -208.24899 50.001598
-17.6187 -182.48399 56.2747
-25.866899 -235.757 46.360802
-7.9538999 -218.082 57.888199
-9.1920004 -182.27699 44.198299
-9.7028399 -192.092 43.391399
-17.080099 -200.95 44.433102
-5.6261802 -184.83299 46.926701
-17.129601 -176.32401 52.317299
-5.8130298 -200.411 54.182301
-6.4391699 -231.3 44.102402
-25.6957 -220.495 45.023201
-0.36187699 -227.89799 44.537201
-19.5546 -218.664 55.782902
-18.815201 -205.47701 57.018902
-16.8685 -171.74001 57.637501
-19.045799 -206.48599 57.185799
-25.0431 -222.681 45.965099
-13.903 -174.439 43.434898
-1.38524 -174.685 50.3088
-17.615499 -192.964 45.9515
-14.2993 -188.80499 44.287899
-7.3765898 -210.427 52.787201
-10.0819 -193.13901 43.413101
-14.9611 -175.373 43.2253
-5.7765298 -189.67101 56.098301
-20.2742 -197.381 49.074001
-14.6906 -186.63499 43.826801
-15.8003 -179.12399 42.944599
-17.6113 -169.53799 55.0555
0.62265301 -175.67101 46.191601
-10.5699 -214.323 45.135899
-20.6415 -200.285 48.981201
-8.24932 -172.463 44.1945
-23.760099 -225.55099 52.219898
-19.174601 -215.94 50.5424
-17.712999 -193.951 43.852699
-16.7526 -176.47 42.9925
-22.8731 -203.267 43.3186
-18.7589 -209.69501 46.716599
-19.6486 -219.547 57.504799
-21.3442 -207.49899 44.0452
-20.4179 -222.14 57.616299
-18.8706 -203.496 51.930401
-6.1848898 -192.44701 53.781601
-18.411699 -204.211 48.339699
-5.43573 -168.12399 44.996399
-2.85076 -189.108 50.105
-18.246401 -191.862 55.305099
-5.1979299 -184.22301 52.4804
-8.62994 -211.40601 43.814701
-16.8319 -175.882 49.8316
-16.3444 -171.938 42.965801
-6.7452102 -232.99699 56.028801
-5.2843099 -177.44701 49.207298
-9.4284601 -189.82401 43.3895
-12.4724 -174.634 43.011799
-16.722799 -177.493 45.570301
-7.8119602 -218.146 55.1381
-15.2742 -173.67999 43.045101
-6.3867698 -175.651 43.385601
-16.690901 -168.313 53.5275
-0.135795 -188.571 47.0228
-18.998301 -214.414 48.336899
-8.5570002 -194.814 45.316299
-15.2538 -178.311 42.828701
-3.6968999 -177.81799 44.876301
-11.7744 -184.409 43.532299
-19.111601 -215.65601 50.0107
-18.139799 -216.68201 44.368401
-6.7585802 -199.319 57.539902
-18.252399 -193.383 57.974701
-4.9173002 -174.302 44.249599
-16.979601 -169.54401 48.862999
-21.892799 -185.528 48.740002
-7.3558698 -224.132 43.880798
-18.5954 -200.80099 57.232101
-1.05051 -180.08 46.194901
-10.6875 -176.673 43.540298
-23.4814 -223.293 52.214001
-13.8109 -191.13901 43.868
-10.5956 -212.479 45.246101
-18.692699 -205.614 54.660099
-1.74192 -180.164 46.189098
-22.219801 -224.655 50.575001
-20.846001 -186.05 49.978298
-17.2978 -176.511 56.212601
-13.3627 -181.05901 42.708199
-7.7202401 -190.379 43.491699
-5.5451999 -178.157 57.444
-26.5327 -228.578 43.595699
-11.92 -190.371 43.369701
-7.8060699 -181.10699 44.154202
-18.774799 -194.45599 54.0564
-21.1178 -217.649 44.719898
-17.430401 -188.347 46.645302
-18.5662 -197.41499 48.5359
-5.3621001 -179.388 57.912701
-5.0469098 -173.067 49.1008
-17.975599 -197.5 44.6199
-17.826099 -192.411 45.5289
-19.372101 -200.416 48.654202
-15.7821 -163.761 42.814098
-7.18853 -198.866 58.154202
-18.8251 -208.254 50.591801
-5.2692199 -186.69 52.651699
-19.518299 -210.72099 54.063099
-15.7282 -182.62601 45.519798
-4.7649298 -171.52 48.256001
0.16792101 -186.58099 46.866199
-6.1936798 -195.35001 46.7248
-15.4956 -219.698 44.439301
-17.733299 -189.39799 52.161701
0.50858599 -173.42999 46.1091
-25.766399 -232.64799 43.671799
-24.424299 -221.467 43.8283
-0.55872601 -189.173 45.311699
-5.9919801 -231.866 44.1572
-5.5855098 -183.149 50.568802
-22.807699 -199.64101 49.0285
-13.8081 -181.72501 43.706902
-16.122601 -165.992 45.528099
-18.0681 -220.772 43.7696
-5.3917198 -180.41 52.1418
-19.3099 -218.83501 46.811798
-7.4226198 -209.577 54.0891
-16.9587 -169.871 56.3717
-6.59835 -202.00301 44.758202
-27.244301 -226.123 47.492599
-2.69191 -218.838 46.4557
-6.1166701 -174.7 43.616402
-15.2289 -201.14 43.297001
-16.240299 -163.783 43.827499
-4.8398499 -184.853 52.525101
-19.133699 -222.778 43.642101
-17.4587 -168.922 54.8498
-5.8386898 -182.944 43.611401
-7.6388602 -215.75999 52.236801
-20.001801 -205.27 49.3111
-3.7730899 -182.19701 50.188599
-18.499399 -197.605 57.826599
-16.818899 -173.771 49.550098
-6.7151299 -232.659 50.653999
-18.042101 -198.21899 48.3377
-1.64468 -182.14 45.0877
-20.799601 -188.478 48.206699
0.48033199 -174.15401 45.503601
-18.133801 -192.882 47.5942
-14.1353 -230.832 44.074402
-17.216299 -180.245 51.086399
-17.112301 -181.071 49.6702
-8.2382898 -235.16499 49.300598
-22.815599 -219.326 45.129299
-5.8392601 -164.403 43.2458
-4.9337502 -169.63499 46.876801
-16.443899 -172.29201 45.5881
-6.7418199 -209.14999 56.700199
-5.3690801 -173.105 42.437599
-2.67788 -176.45599 50.120701
-6.7477198 -194.89 51.670502
-0.67366898 -172.864 49.774899
-5.7814002 -186.922 50.237499
-3.7365799 -169.021 49.936298
-24.8167 -232.98801 44.157001
-7.4956698 -212.20599 56.168499
-4.6725402 -179.75 55.789398
-3.5460701 -232.47701 49.593399
-18.366899 -183.91901 47.539001
-19.3493 -216.418 53.8536
-6.1051102 -200.908 53.283798
-6.25565 -192.591 49.7682
-13.8176 -188.89301 44.280899
-3.2028301 -181.464 49.832901
-8.66677 -188.81 43.4035
-16.895 -198.884 43.325199
-19.579901 -220.97301 52.258099
-23.7621 -225.52299 50.455399
-4.8761101 -223.855 43.319302
-19.336399 -220.339 47.223701
-17.8363 -169.27299 48.181
-23.427401 -225.276 43.875301
-18.803801 -205.20599 46.991901
-2.8153 -219.061 47.123501
-7.1665502 -212.53101 44.439602
-5.1011701 -216.533 49.791302
-7.4373398 -209.948 56.869301
-5.5440798 -191.619 50.337502
-6.4229798 -198.71201 46.337002
-8.6146498 -231.22 43.979599
-6.0692401 -196.422 55.961899
-22.6555 -196.439 48.728001
-6.4080901 -191.08299 56.738499
-18.0037 -175.716 48.893398
-16.968201 -177.91701 50.553699
-18.945801 -213.032 44.5191
-6.5098 -174.817 44.025799
-6.09231 -189.437 56.7784
-6.8976402 -208.592 49.271599
-17.4447 -224.877 43.552898
-7.60464 -208.588 52.854599
-15.8034 -203.086 44.448502
-7.7474799 -215.92999 57.314602
-15.5382 -216.68401 44.782398
-9.2405901 -233.46201 44.222599
-16.645599 -174.314 46.403599
-5.8517399 -193.828 45.958401
-6.5573802 -218.20399 56.173302
-13.9798 -182.228 43.7948
-14.1501 -177.424 43.027901
-0.49456099 -230.37 44.0219
-13.593 -206.685 43.543999
-20.1217 -219.94701 54.572201
-19.1021 -215.82201 44.004002
-14.6628 -193.819 44.0527
-2.0676999 -191.86099 50.198101
-0.868285 -231.666 45.376499
-15.7986 -229.97099 44.0424
-14.4175 -207.98199 43.494099
-17.5371 -186.69099 52.240101
-20.112 -211.82899 50.618198
-8.5913601 -235.535 48.898399
-19.1343 -176.808 48.022301
-4.67768 -167.11301 48.160801
-16.898399 -169.533 47.724098
-5.0303302 -221.44501 46.536201
-19.7313 -220.61301 57.959599
-17.356501 -192.63 43.302101
-18.9841 -213.101 47.8591
-19.8915 -207.72701 43.544601
-10.3867 -170.87 43.056702
-4.9545298 -192.63699 56.754299
-24.723499 -220.793 45.939899
-23.4967 -224.922 45.878899
-24.275499 -222.10899 45.154099
-19.308701 -211.34801 57.437698
-22.919201 -237.379 49.647598
0.31169301 -174.12 47.0606
-18.125 -199.095 49.096001
-10.2813 -180.424 42.721699
-19.2939 -188.045 47.629501
-17.246799 -173.03999 54.336201
-21.607901 -210.198 52.085098
-18.1208 -197.80701 51.615501
-5.5541201 -203.88499 53.723499
-19.549601 -217.91 55.603699
-5.0949101 -186.427 46.544498
-16.0117 -166 44.364201
-16.8374 -167.134 45.5508
-18.465401 -194.373 57.632999
-14.3236 -186.7 44.420799
-22.4284 -185.25 49.220901
-8.0905895 -221.901 53.923401
-5.3140802 -176.078 43.5341
-12.1911 -178.623 42.956402
-6.5807199 -197.028 57.616798
-4.9558702 -174.42799 48.656101
-7.3264999 -184.8 44.116798
-20.799999 -227.705 43.764301
-16.2096 -164.33501 43.242802
-7.2220898 -206.638 54.0555
-8.2535105 -175.895 43.8722
-9.4557896 -241.56 54.898201
-18.330999 -192.869 45.769299
-5.2709098 -177.57201 51.106602
-16.6775 -179.12 42.4925
-25.2507 -235.735 47.3633
-12.3946 -187.786 43.322498
-17.446199 -190.13901 44.424198
-4.94031 -176.84399 55.163502
-19.6376 -211.769 50.549999
-5.0996199 -172.651 51.639301
-6.0490198 -207.11501 53.5172
-19.188101 -192.008 52.095798
-19.7987 -194.24001 48.879902
-19.579201 -214.726 53.470501
-17.960699 -190.47501 58.379398
-1.75472 -184.27699 46.547001
-2.9459801 -192.931 50.2038
-18.556801 -230.90601 43.8997
-21.241699 -211.18401 52.090698
-17.4741 -224.342 43.474499
-10.7328 -208.058 44.826599
-8.1247902 -177.211 43.803501
-17.1227 -174.545 56.312199
-16.6322 -172.884 46.744099
-18.0716 -191.005 47.904099
-26.5378 -226.72099 43.6717
-18.646799 -200.77 56.656101
-6.1812901 -188.67 54.358398
-7.2664499 -208.06599 50.869801
-12.3015 -195.308 43.4189
-5.36308 -189.076 52.4538
-4.0322199 -177.49001 44.407299
-8.8524904 -236.87601 52.800201
-21.6068 -223.959 43.678501
-19.124201 -209.078 49.998402
-16.567699 -171.289 45.2383
-18.1336 -199.767 46.576401
-5.3425498 -200.38699 43.711899
-21.6066 -228.174 44.868999
-17.5322 -183.45799 55.683701
-4.69526 -165.50999 43.391602
-1.87745 -175.918 44.3811
-17.472601 -221.392 43.691101
-4.1377902 -170.94099 50.209301
-5.48243 -187.64 55.1157
-16.9189 -171.819 53.4524
-11.5581 -216.985 44.457001
-18.618401 -205.80299 52.171398
-2.42627 -182.302 49.799999
-4.3148499 -164.48399 44.4319
-3.5648301 -231.90199 51.7402
-14.7781 -208.825 44.995399
-22.325001 -180.657 44.418999
-24.5268 -220.91901 44.6674
-5.0724201 -176.158 47.324299
-19.1429 -199.155 52.134102
-5.8748798 -203.855 50.979099
-15.22 -169.998 42.952202
-16.187599 -165.424 47.7766
-26.819 -230.922 43.979198
-17.2187 -185.399 44.427101
-4.1802602 -184.44501 49.710602
-3.94292 -174.16901 45.618401
-16.8967 -175.927 50.3433
-7.45749 -209.369 56.098202
-5.5093002 -180.32201 42.769299
-7.79849 -217.485 47.352699
-17.624399 -186.299 53.379002
-5.4799299 -181.12601 51.0513
-3.16605 -221.67999 45.471298
-18.1859 -200.39799 46.6675
0.33861601 -175.228 46.246601
-3.6370599 -174.8 45.6488
-5.9641399 -186.901 53.079899
-16.289801 -166.998 49.882
-16.080299 -217.55 44.2999
-14.9256 -201.457 44.215698
-6.8929901 -201.312 57.302101
-19.768999 -203.99001 52.146301
-4.9753599 -182.39799 55.2831
-18.7197 -207.828 46.209499
-22.060499 -224.41701 55.351299
-17.044901 -180.129 48.507599
-16.713699 -172.11099 50.822601
-3.30304 -172.36501 49.8946
-7.5194502 -232.823 49.135899
-7.6381698 -214.597 54.8293
-18.125299 -205.843 43.487801
-3.2729199 -174.58701 50.377602
-10.1669 -197.57001 44.489498
-18.417999 -202.715 47.729198
-7.4144902 -206.125 51.320202
-12.9108 -174.776 43.139801
-22.0154 -205.27699 43.416801
-19.373199 -185.022 51.757099
-4.4909 -197.992 48.488098
-8.8186398 -174.965 44.307098
-5.57934 -214.92101 46.997601
-8.0878801 -218.802 59.247799
-18.463699 -203.838 47.229599
-18.187201 -184.69099 47.051899
-6.3197999 -193.758 53.116402
-6.2638402 -211.79201 53.692699
-18.056499 -196.455 51.6978
-5.8498302 -186.07001 53.601002
-8.9321299 -178.41901 44.799099
-8.10501 -221.89999 53.230598
-19.7453 -219.345 55.724602
-4.4222398 -176.241 44.5667
-5.3745999 -176.138 53.893101
-5.63379 -190.73 45.171101
-7.3189802 -201.44901 58.115299
-15.1739 -213.604 44.922401
-7.8123102 -207.98 52.4547
-4.7020998 -179.58701 51.499298
-16.3214 -180.97301 43.181198
-6.8172402 -232.879 55.367298
-5.77742 -183.713 55.6404
-19.114599 -199.98801 48.6035
-17.7754 -193.82001 47.660801
-16.944901 -169.49899 45.3829
-8.66572 -238.765 50.402302
-2.96668 -182.369 49.787498
-4.5431399 -219.076 47.121498
-6.52315 -212.25101 49.811501
-0.70303202 -174.659 50.330002
-8.8448296 -167.924 43.0495
-5.9084101 -175.287 45.932301
-18.3605 -197.479 56.1161
-19.289801 -218.784 49.993801
-16.410101 -169.673 47.129299
-21.355499 -198.23 49.042198
-19.3986 -215.66 47.018002
-13.9871 -180.953 43.7374
-5.5019698 -184.19099 43.997101
-21.680099 -228.436 44.3167
-6.3340101 -222.36301 46.632099
-18.137899 -197.25101 45.384998
-7.7262001 -217.64799 58.3265
-22.7243 -237.948 50.040001
-21.200899 -212.23599 44.201
-23.3503 -219.14301 44.805401
-7.20893 -169.474 44.2939
-5.8804898 -191.705 48.9081
-4.5644598 -166.05701 46.767101
-6.8731499 -203.27499 55.677502
-18.762699 -199.388 57.552799
-6.97118 -205.49699 45.6884
-6.8312502 -205.56 44.221001
-20.3951 -219.636 43.999199
-20.337601 -213.17799 54.861801
-1.92793 -190.405 49.294498
-16.955299 -180.562 47.678398
-13.5851 -222.508 43.797298
-4.75736 -167.368 48.806999
-13.0281 -184.608 43.412399
-8.0312996 -219.49001 55.313202
-0.94620198 -170.049 50.451401
-4.3751402 -171.94901 48.099899
-18.033701 -197.438 49.3064
-7.8101301 -215.27499 57.602699
-7.7593899 -196.465 44.738499
-11.9313 -184.953 43.586102
-17.853399 -187.258 51.728199
-17.6451 -184.41901 55.059399
-19.427401 -216.015 55.6376
-18.728901 -184.04201 47.999001
-11.3742 -188.787 43.388199
-19.428499 -217.592 54.490601
-19.4804 -213.485 54.5476
-17.312099 -186.686 44.435799
-21.688 -223.64301 55.7402
-4.91256 -183.39799 48.929501
-1.6312701 -181.756 44.776501
-18.7181 -204.82899 44.995998
-18.252701 -186.31 54.6376
-8.6901197 -233.65401 55.4632
-17.5436 -188.869 57.2234
-15.2108 -166.673 42.901798
-16.0252 -166 43.2957
-17.5592 -200.98199 43.3195
-16.0581 -167.05701 43.3074
-8.5176201 -191.487 43.403999
-7.6403799 -198.021 43.6478
-13.3675 -182.433 43.121899
-6.4003901 -196.896 58.0863
-16.0287 -220.089 44.591202
-8.8378801 -236.821 53.521198
-11.9285 -164.28 42.8741
-14.051 -216.849 43.744301
-23.370899 -236.873 47.7066
-5.1976099 -190.27499 55.433102
-3.99122 -181.98599 49.678501
-7.33249 -212.505 47.6619
-17.769501 -191.58299 52.1035
-19.4284 -221.077 47.747101
-5.77985 -174.664 43.167301
-20.0541 -219.442 54.180302
-19.893 -200.261 48.081699
-0.49324501 -226.73599 44.0065
-15.2196 -164.23 42.819599
-22.4778 -206.681 44.826801
-19.497 -220.664 50.577499
-21.349899 -184.748 48.627102
-18.634001 -200.491 58.7131
-21.8009 -218.92101 44.623798
-9.1626596 -202.248 43.509899
-8.1993599 -202.55 43.740501
-25.35 -219.263 44.330502
-9.6300001 -190.92599 43.389
-24.362499 -224.59399 44.6768
-18.687401 -202.819 49.983799
-7.5278201 -232.819 45.054199
-7.8738699 -216.487 57.370499
-21.2852 -208.19 43.845901
-7.8894801 -209.733 52.438599
-4.6569099 -221.217 47.085899
-10.8425 -221.905 43.7346
-17.1357 -176.937 52.014099
-17.4669 -169.502 48.998001
-17.2216 -175.545 55.968498
-14.1402 -226.14 43.698299
-11.2583 -175.698 43.3078
-16.801399 -170.92 48.682499
-23.188 -198.651 48.904701
-6.2824898 -197.035 47.017399
-18.2542 -202.939 43.201801
-5.3164401 -174.823 43.6078
-18.8235 -207.95 51.7001
-5.6568899 -180.728 42.9799
-5.95011 -207.386 54.341301
-16.992901 -179.841 46.122898
-4.7443399 -194.63699 44.988602
-25.2911 -235.733 45.0574
-17.8738 -196.46001 44.598801
-7.85005 -209.172 52.5103
-5.9927101 -189.784 53.354599
-18.562201 -203.64301 45.447601
-19.952999 -184.284 52.142101
-19.664101 -188.42999 48.959801
-8.8201504 -236.32899 49.822701
-6.8369002 -199.90601 54.621498
-6.6248698 -192.377 51.304401
-19.694201 -224.38 43.6185
-8.7929602 -236.086 53.6656
-10.5546 -204.34599 43.612301
-1.65992 -224.476 45.0471
-5.0525098 -170.50301 54.773998
-11.849 -228.356 44.0341
-18.126301 -196.017 52.789299
-7.68683 -213.799 57.215302
-2.07265 -228.569 44.039101
-15.1656 -165.972 42.880299
-2.6194699 -191.88699 50.175999
-4.6863699 -196.838 53.5144
-5.5199699 -178.894 56.2556
-4.5053401 -189.814 53.056099
-22.024 -215.45 44.669601
-19.7096 -203.36 43.521702
-19.2334 -208.63 56.7962
-21.548599 -200.203 49.082901
-5.2167702 -178.785 46.3419
-2.8277099 -175.877 45.933601
-7.29599 -210.29201 50.386002
0.547342 -170.90199 47.089199
-17.1054 -182.68401 47.224201
-3.5861499 -217.28 47.135101
-17.5254 -189.481 45.2561
-9.4043903 -205.312 44.214699
-9.4246597 -193.276 45.310101
-14.1451 -225.461 43.694199
-23.7138 -229.658 43.972198
-10.8337 -182.57899 43.243099
-4.6217599 -169.31 43.433998
-18.2943 -197.84801 55.394199
-17.7467 -179.55901 47.800301
-10.9812 -218.58501 45.564999
-6.8652601 -201.709 56.959202
-24.089899 -220.908 46.114399
-6.5884399 -197.20799 50.473598
-23.745501 -224.064 44.015099
-14.5903 -218.59801 43.8447
-20.315399 -207.533 49.153
-19.168501 -200.384 49.095501
-4.7333598 -231.226 44.165699
-18.0837 -193.90199 57.501099
-18.6985 -225.67799 43.680401
-4.0857501 -184.59599 45.8353
-17.585699 -188.367 49.458401
-17.462799 -176.16 55.650902
-18.9865 -212.91299 49.5769
-10.8335 -219.687 44.839901
-5.7388301 -191.58701 52.6441
-9.0414896 -177.16901 44.327702
-5.7203698 -211.82899 54.2314
-7.86797 -219.93401 46.6716
-5.28579 -231.674 54.639099
-8.6147604 -226.35699 43.848801
-2.5436201 -220.70399 45.754101
-24.3925 -206.56599 43.445499
-8.9925299 -186.80701 44.253201
-6.9355302 -220.94701 45.746799
-3.34673 -174.507 49.520599
-15.6635 -179.601 43.080002
-8.4910002 -234.65601 46.736801
-17.386 -175.448 47.529499
-15.5533 -201.146 43.785599
-5.1026602 -176.13699 44.805698
-17.9704 -198.10899 45.592999
-7.4039798 -217.79401 57.878101
-2.7883101 -192.35899 50.209
0.80315799 -172.548 46.586102
-8.9774399 -235.811 51.934299
-20.357 -212.724 52.101898
-16.9765 -182.408 42.862499
-26.998501 -231.877 43.908298
-7.24019 -210.812 47.232498
-17.2309 -178.228 53.630001
-1.63199 -228.13499 43.962299
-5.0228801 -184.285 56.124802
-17.6248 -188.226 52.519798
-17.702999 -181.64301 54.502499
-9.47752 -186.51601 43.962399
-19.444401 -203.72301 51.875702
-5.83009 -188.15401 48.0714
-3.1801701 -184.763 50.008598
-26.9949 -234.989 44.931801
-14.2447 -192.01801 44.174099
-18.094299 -199.036 46.645599
-8.97258 -176.42999 43.864899
-14.5771 -212.608 43.531101
-5.2314301 -184.364 51.912899
-16.216101 -168.168 43.855202
-1.94786 -182.132 50.018101
-27.542601 -228.692 43.521702
-0.45487899 -187.717 46.694599
-7.9535499 -217.843 47.684399
-2.7055299 -181.85201 44.806599
-5.0877099 -175.42599 43.4758
-5.33672 -179.72301 45.738899
-13.5118 -200.44701 43.401001
-10.2622 -197.575 43.451801
-4.24646 -223.28 45.008999
-16.879499 -169.30299 51.411999
-4.1862001 -166.821 44.959599
-14.6906 -204.772 45.006699
-22.0112 -223.614 57.205101
-8.6648998 -233.17599 48.643002
-3.2718101 -232.26601 47.0984
-18.710199 -179.687 49.832802
-8.8361101 -173.259 43.4021
-27.756399 -226.21001 44.114101
-11.8749 -224.138 43.762402
-23.302799 -236.549 47.340099
-27.983101 -226.173 45.4972
-21.8978 -211.394 44.517899
-19.521 -215.18201 51.798302
-6.3956699 -212.504 54.194901
-16.7759 -171.21201 53.164299
-17.2577 -184.959 48.242802
-13.1206 -185.481 43.5644
-5.4725499 -186.80099 46.078899
-4.8713198 -167.877 53.3848
-20.0732 -219.095 45.7309
-4.9556699 -189.483 45.458401
-1.11789 -179.882 44.189999
-4.1272702 -165.98801 44.0923
-19.4718 -218.01401 53.605301
-16.613199 -169.25 53.243099
-23.42 -182.912 49.020302
-16.929899 -172.11099 54.4403
-6.0604701 -193.282 47.094898
-3.3518 -232.047 49.422401
-8.5478201 -186.922 44.394501
-4.1943698 -171.534 52.9114
-19.2787 -216.51401 50.9911
-22.4995 -234.91299 44.355
-4.1719298 -165.961 45.8134
-23.3964 -183.664 48.5233
-14.5365 -204.696 44.560799
-23.239201 -224.742 44.955898
-7.8852201 -181.11 44.647099
-3.58339 -179.049 48.580898
-7.54212 -210.76601 43.951
-18.7491 -206.51401 50.574699
-5.42206 -167.30701 44.522099
-22.957701 -232.959 43.891998
-6.9628801 -208.19901 44.6264
-18.2976 -200.759 49.453499
-27.125799 -221.118 45.8013
-7.2047801 -232.739 56.929401
-0.67597699 -172.47 50.101299
-24.8148 -214.855 43.515701
-4.9992099 -186.935 49.5839
-1.15565 -189.325 50.5107
-4.6933098 -169.63901 44.324001
-1.11736 -180.362 50.367599
-6.5771198 -196.733 50.515701
-5.5089598 -187.638 52.9118
-19.0378 -211.69099 43.544498
-1.72286 -182.633 46.245499
-14.3528 -180.963 42.711899
-20.6992 -183.464 49.6745
-0.59110898 -231.032 51.412899
-17.454599 -181.15601 44.712299
-5.1996799 -186.533 56.675499
-3.03442 -197.98399 50.233501
-15.4385 -196.414 44.430801
-15.2937 -210.98199 43.7887
-22.3512 -181.974 49.591999
-6.6431699 -201.02699 50.931801
-25.934601 -225.834 46.668701
-18.2537 -200.099 44.436798
-16.4662 -173.20399 43.431599
-18.653 -196.95799 56.815899
-6.6929698 -193.048 51.892502
-7.0756602 -216.509 46.523102
-11.7264 -212.511 43.681801
-10.307 -174.129 43.167099
-18.115499 -192.192 51.7342
-4.59653 -167.689 45.576199
-19.5467 -217.685 45.3381
-0.76911902 -193.951 50.287498
-22.0963 -224.524 51.1623
-3.8894501 -232.03101 53.437199
-5.2006102 -194.664 49.1633
-17.4606 -178.933 56.364899
-5.1352901 -176.80299 51.419899
-18.206499 -201.603 43.867802
-14.6878 -223.15401 43.742001
-5.0205302 -179.13 49.368999
-25.368299 -228.554 43.494701
-6.9840498 -232.90199 45.252998
-16.2743 -225.078 43.571098
-18.5711 -195.23 50.877602
-3.49892 -179.03799 44.257999
-3.5969901 -231.306 44.202202
-1.15194 -178.054 44.144299
-19.444401 -217.537 55.043999
-9.9887304 -232.446 44.114601
-4.4026399 -169.25999 55.819099
-7.1470299 -206.993 56.505699
-18.3715 -201.438 52.782501
-3.67172 -222.994 45.253799
-8.1562099 -210.008 44.814098
-18.4566 -204.09801 46.670898
-7.5005102 -213.26199 52.179901
-6.50314 -198.26801 50.878799
-11.4112 -211.39999 43.6465
0.370619 -176.58501 46.149101
-14.6851 -186.854 44.902599
-5.87289 -222.467 44.019199
0.592709 -168.55299 46.6231
-4.9470701 -175.375 45.432499
-0.96632802 -231.614 44.343201
-14.6095 -191.604 44.6348
-18.327 -199.985 53.776001
-8.3437595 -167.677 44.657398
-3.50631 -192.998 50.245201
-27.357201 -234.558 45.303501
-27.4524 -234.23199 44.594601
-19.051201 -209.125 46.123299
-27.7533 -230.782 44.064499
-7.0972099 -211.39799 48.7351
-4.4520001 -169.254 46.013599
-9.0471601 -179.19299 44.174099
-5.0251899 -169.47501 55.1446
-9.0016699 -236.39301 51.495701
-6.3366098 -194.879 51.055698
-1.65888 -182.623 45.539398
-14.8311 -187.66 44.797001
-19.784901 -184.95399 52.4506
-24.4757 -234.64799 44.349098
0.14249399 -226.505 43.888802
-15.0084 -182.748 44.1576
-21.655199 -223.767 47.6763
-11.7214 -218.869 44.9314
-1.35053 -229.07899 44.0256
-6.5587902 -190.384 43.617001
-7.9236002 -175.397 43.053501
-6.6217098 -227.002 43.8778
-4.0654998 -229.425 45.669899
-9.0403795 -239.203 52.816601
-16.161301 -206.89799 44.243599
-5.0172 -182.38699 52.226299
-19.248501 -205.41901 56.253601
-17.885799 -189.88901 55.685101
-13.5969 -230.218 44.069801
-15.8243 -177.119 43.084801
-25.4652 -222.84399 45.678501
-15.8221 -203.71201 44.8801
-16.139999 -179.634 43.144199
-5.73877 -177.129 47.1553
-16.7246 -173.98801 49.106098
-9.6674299 -198.677 43.461498
-18.365 -195.96201 57.350399
-20.8636 -222.30901 45.336899
-21.3524 -208.689 44.071201
-23.4237 -203.51401 43.996101
-15.5381 -218.047 43.6619
-1.61921 -181.99001 44.262901
-4.6030402 -182.215 45.548401
-15.0398 -195.7 43.593601
-1.61509 -196.896 50.215199
-17.612 -205.60699 43.521599
-8.4920301 -229.675 43.911499
-18.568001 -219.20799 43.715099
-3.68771 -223.619 45.207401
-18.9874 -206.96201 55.612
-19.280701 -214.601 54.789001
-14.145 -230.314 44.061901
-19.6031 -216.46899 44.593498
0.52355701 -169.14301 46.709499
-21.285999 -223.395 50.1525
-22.8503 -224.336 44.085098
-19.6469 -218.405 56.992901
-5.29988 -174.51601 57.914902
-2.9360299 -231.933 53.2103
-8.1985798 -177.84399 44.295502
-13.6686 -230.731 44.075199
-22.6241 -224.14 56.865501
-20.415501 -196.918 49.030998
-7.86445 -220.02699 52.243301
-6.59865 -196.047 58.527
-6.0195599 -197.13901 52.3694
-17.0895 -181.948 48.0989
-9.7086 -193.75101 43.445301
-18.7076 -184.862 52.574001
-20.2111 -233.01801 44.134201
-6.5478601 -203.125 46.227501
-9.11273 -178.367 43.681
-2.66659 -223.401 45.853401
-6.54178 -220.528 46.162102
-14.9697 -203.086 44.177502
-8.6443701 -234.37399 48.515999
-10.7883 -203.86501 43.548901
-1.68955 -183.118 45.562
-6.2094998 -197.205 55.872002
-15.8312 -218.02499 44.821602
-8.9889803 -237.772 57.726002
-7.2558198 -220.395 44.6646
-26.3249 -230.94 43.5
-9.0353603 -234.77901 57.2397
-7.0207901 -198.021 58.016701
-17.0448 -167.242 45.987598
-17.8503 -183.48801 51.445999
-12.2994 -191.549 43.3344
-18.5667 -194.742 51.4603
-3.3009601 -228.09 44.043701
-3.3710499 -190.089 49.7005
-4.7027102 -173.74001 49.2248
-20.3424 -218.47301 45.060101
-23.9748 -221.70599 45.4655
-16.819201 -226.916 43.744301
-0.81136501 -176.5 50.221401
-18.4319 -201.713 44.861401
-17.196301 -174.05 56.369999
-16.8943 -180.284 45.690201
-0.85722101 -231.51401 48.348099
-5.8559699 -190 45.870499
-0.89039201 -180.77901 50.3078
-23.4531 -215.519 43.465302
-24.2864 -233.412 44.1595
-12.49 -208.534 43.564602
-18.633301 -206.02299 52.6222
-18.8405 -208.373 51.354401
-22.613899 -225.089 51.709999
-17.184099 -183.72501 46.3727
-13.0301 -206.088 43.555302
-19.182501 -199.27901 54.3064
-16.3302 -167.61501 49.900002
-14.3204 -224.314 43.621899
-9.5304604 -221.16701 45.863899
-19.497801 -207.172 54.5774
-18.3634 -190.901 52.004101
-8.7441502 -235.20599 54.349998
-6.1230798 -188.162 57.510101
-4.2072501 -166.39999 44.424198
-15.3175 -203.01401 44.498299
-20.509701 -222.04601 45.6208
-14.2845 -187.99001 44.781799
-9.3616505 -185.57899 44.443199
-13.0409 -206.58299 43.557999
-7.7739201 -203.679 43.780899
-8.59729 -238.004 57.1922
-20.6401 -222.60699 49.1432
0.49185699 -176.99001 45.775101
-15.8778 -192.48599 44.042801
-19.6938 -210.992 44.989399
-25.8297 -230.91499 43.8652
-17.4627 -223.46001 43.4622
-24.504499 -205.923 43.758598
-17.231001 -178.22301 55.053501
-20.1607 -232.526 44.084301
-26.895201 -227.959 43.556
-13.0334 -176.845 43.0597
-19.648001 -214.83501 57.394299
-19.589701 -219.15401 50.086399
-23.011101 -235.205 44.382702
-5.5018001 -179.94901 49.827301
-26.685101 -221.892 45.6689
-6.1722202 -224.737 43.879902
-6.1745 -232.995 56.569401
-23.9011 -231.438 44.1101
-13.3438 -171.75101 44.487801
-9.1656303 -172.73199 43.092098
-19.0574 -201.509 43.620602
-2.10818 -226.89101 44.237499
-19.483999 -220.30901 58.294102
-10.0964 -195.35001 44.570202
-18.299801 -195.39 58.7169
-10.3888 -183.73599 43.495899
-17.3426 -181.659 53.741199
-17.0881 -172.61301 56.007301
-6.3988199 -199.742 50.333698
-6.3780999 -192.537 55.682201
-6.54106 -194.312 53.843201
-6.5100098 -203.80299 49.441399
-19.6866 -200.082 51.4972
-9.7781496 -203.01401 43.5308
-17.4555 -181.996 46.9221
-6.1854801 -193.289 51.571899
-17.221701 -175.36099 43.403702
-4.9828701 -173.347 51.7369
-11.5245 -217.491 45.0271
-6.0195398 -214.929 49.379501
-6.2882199 -210.172 53.421799
-6.8168101 -202.252 51.743301
-5.45543 -186.849 53.198101
-18.1336 -192.838 58.315498
-18.278099 -197.29601 48.051201
-18.0884 -191.72701 57.195099
-7.7600999 -220.409 54.0509
-5.5184698 -191.8 48.4618
-17.3311 -184.929 50.5597
-16.8993 -178.35699 46.364899
-8.2606697 -235.358 52.7911
-18.437099 -204.403 44.971699
-3.2158101 -172.80099 53.6996
-16.582001 -172.573 47.147301
-1.88714 -230.675 44.1143
-18.7973 -210.308 47.230099
-4.5434198 -181.836 49.351898
-19.801201 -199.98 50.9659
-3.9494801 -177.411 45.984901
-4.4338398 -217.79401 44.769901
0.57871801 -178.414 44.987301
-17.7318 -175.521 52.168301
-4.8933101 -187.22301 52.952999
-8.6381798 -234.32001 51.026798
-18.0275 -174.215 51.727299
-8.0046301 -172.82899 44.789501
-23.726801 -236.36301 49.050999
-18.9655 -207.476 47.887798
-16.263901 -164.87601 43.293598
-11.3689 -171.158 42.988201
-25.954901 -225.806 49.538601
-11.9364 -168.02499 42.935398
-17.062 -182.062 45.649399
-14.4115 -178.30701 43.063301
-19.090799 -212.79401 47.474201
-9.7704802 -184.121 43.4935
-6.1468201 -232.577 51.442402
-5.9850898 -187.14101 55.060902
-7.7404599 -214.287 56.6759
-11.3693 -198.687 43.472
-3.9819701 -190.086 49.565498
-8.6529703 -233.269 46.390701
-2.6220601 -219.46201 45.048801
-17.368999 -186.35899 47.881199
-5.6333499 -185.787 45.378101
-9.0699701 -203.539 43.547501
-21.416201 -225.51601 43.700699
-23.0564 -224.65401 52.0196
-10.9557 -220.82001 44.578899
0.65446699 -220.705 45.231201
-17.352699 -187.08 45.546902
-3.9904201 -231.64 51.554901
-16.806999 -170.754 52.8009
-16.0874 -165.40199 44.412899
-13.6547 -170.37199 43.9282
-7.51548 -217.519 49.3419
-13.8369 -188.57201 44.8144
-0.86364198 -179.87601 45.316502
-0.86679798 -187.089 50.232899
-19.209499 -217.118 50.0117
-7.64504 -219.709 48.074699
-4.4251499 -168.334 45.5872
-7.6662502 -216.409 53.544701
-17.0418 -171.98199 56.208199
-3.3054099 -178.785 50.2654
-12.4895 -175.19 43.223999
-4.2066998 -216.895 47.091301
-7.1847801 -207.785 52.4725
-4.5594101 -171.765 56.605499
-18.863899 -206.653 56.301601
-20.769501 -222.688 48.515499
-22.209801 -230.549 43.727001
-9.6571999 -192.916 43.4109
-7.51408 -219.985 45.943901
-25.4216 -229.285 44.1819
-5.49757 -186.86099 55.367699
-5.3158398 -176.485 50.3074
-10.8432 -170.088 43.021599
-19.329399 -218.69901 47.936501
-1.35186 -222.567 45.566101
-13.1236 -166.802 43.433701
-15.5736 -218.431 44.807499
-19.9352 -219.438 53.585098
-7.7210102 -175.399 44.233101
-17.010099 -218.34801 44.447102
-7.7995601 -221.088 46.638699
-4.5497999 -184.717 48.7103
-20.9685 -208.159 44.312199
-21.820601 -223.5 43.711399
-5.0893202 -170.01401 55.6199
-19.122299 -228.05499 43.869701
-5.03057 -186.942 53.692501
-13.0217 -200.448 43.421799
-5.1560402 -178.132 45.285801
-21.615 -223.228 56.840302
-2.16241 -184.21001 49.936298
-8.2992401 -183.394 43.932701
-16.3144 -194.476 43.3848
-16.1283 -165.435 45.562302
-23.4429 -220.061 43.8321
-18.469101 -204.049 58.203701
-8.0892897 -208.08501 43.8554
-22.7656 -204.02901 44.2146
-18.0669 -174.396 52.173302
-7.7749901 -215.28999 56.824299
-5.07864 -181.06599 45.2206
-6.0682602 -188.964 51.429699
-7.1713099 -203.677 43.841099
-7.24192 -217.283 51.990002
-25.305 -219.69099 44.888901
-6.6944098 -204.771 45.782799
-24.6255 -235.67101 44.9939
-6.1389298 -173.933 43.970001
-6.2723498 -196.55901 47.0765
-9.9570904 -231.216 43.975201
-6.0707102 -190.125 57.0023
-15.0341 -206.435 44.485901
-17.5812 -187.632 50.995602
-9.1533499 -229.683 43.894001
-1.89852 -231.15401 44.199299
-16.188499 -163.118 43.293201
-17.8118 -203.198 43.452301
-17.322701 -185.974 46.671902
-6.7846498 -214.422 49.438301
-7.3045301 -208.755 55.755402
-20.7766 -219.68401 45.167099
-6.2301202 -195.92101 45.761902
-18.263599 -196.817 45.210899
-13.4403 -185.08099 43.872501
-18.3379 -201.994 58.250401
-0.31116 -180.325 50.3283
-4.5443902 -174.009 52.552299
-6.2097802 -232.31799 57.490299
-10.1397 -223.58501 43.786098
-17.549 -181.914 54.1157
-18.8188 -206.558 45.3661
-25.681 -233.782 45.302502
-4.67031 -173.69099 42.334
-16.9079 -221.756 44.012001
-7.8161101 -218.75301 51.5812
-5.5785599 -182.55 51.532001
-10.8121 -201.998 43.5117
-17.4653 -202.89999 44.324799
-5.6939001 -218.703 47.029999
-7.13662 -202.58299 52.831902
-11.3876 -167.073 42.9478
-8.9513702 -237.974 51.3027
-2.5833099 -195.13901 50.581799
-6.6949801 -203.242 48.0644
-16.8664 -171.70599 52.3713
-17.1222 -173.15601 45.062099
-18.8715 -200.10001 50.373299
-8.6159401 -163.828 43.0186
-8.8847599 -237.062 55.303001
-14.4735 -189.963 43.2495
-10.8103 -192.028 43.3867
-19.685499 -209.48 57.3629
-5.5671 -191.314 48.9599
-11.4526 -218.739 45.518902
-4.9050498 -197.502 49.568199
-3.62572 -184.957 45.8634
-18.4823 -201.40199 54.817101
-17.995701 -183.842 51.731899
-19.3022 -204.709 54.091801
-17.7036 -173.196 56.030499
-8.5481396 -168.903 44.677299
-17.439899 -192.147 43.346802
-11.4503 -194.783 43.437199
-5.8576498 -184.573 43.652199
-5.1472301 -177.689 48.1133
-0.67865199 -185.59399 49.514599
-18.717199 -188.58099 50.147701
-7.1755199 -224.597 43.8839
-19.3951 -217.371 52.604599
-8.3967304 -224.703 43.811199
-7.4893498 -204.851 52.4916
-9.6739902 -193.05701 43.905701
-18.728001 -196.953 55.3466
-26.089001 -229.008 44.694199
-6.7153502 -211.882 53.347698
-6.66956 -201.502 49.872101
-17.8804 -178.963 47.716099
1.8321199 -185.64 44.997002
-23.282 -236.401 48.759899
-1.58763 -178.63901 45.0686
-5.8456898 -200.605 50.926701
-17.6847 -187.799 51.4949
-8.3959904 -184.054 43.294201
-6.6448598 -220.98199 46.5681
-9.4410696 -186.50101 44.450901
-8.7948198 -236.189 49.368
-18.7285 -216.38699 43.5919
-19.822001 -212.783 57.496899
-15.243 -181.092 43.1978
-5.8022799 -185.87801 48.259399
-22.996901 -214.789 43.4529
-18.975901 -211.3 50.306301
-17.916201 -189.86 58.654099
-18.907301 -202.92799 50.445301
-19.374599 -205.065 47.524101
-9.7307701 -166.00301 43.0168
-23.3738 -225.418 51.855499
-17.614901 -212.02699 43.5252
-7.1332402 -215.278 48.540699
-7.0127001 -232.82201 51.6301
-5.1285 -176.5 46.493801
-4.6801901 -177.202 48.706001
-7.9187598 -220.92799 48.8423
-5.04143 -175.336 47.682201
-16.996401 -179.998 41.7323
-17.324499 -183.308 45.287498
-18.1173 -184.356 54.2118
-4.7694898 -179.674 48.643101
-18.747299 -206.495 51.2537
-5.7333899 -183.784 50.478802
-18.2672 -201.715 47.691799
-11.9258 -186.04401 43.5513
-18.573799 -203.948 52.5839
-11.9371 -214.131 43.744202
-21.063601 -229.653 43.9259
-3.5915699 -232.369 45.548199
-14.6956 -225.396 43.678101
-19.668501 -221.745 48.6572
-9.5293598 -196.367 45.2108
-25.399099 -225.78101 52.7033
-6.6339698 -192.815 55.327301
-6.2785301 -218.492 47.054501
-16.8584 -174.752 43.638699
-18.334 -187.578 49.621498
-14.8613 -214.40199 44.166302
-7.7936301 -210.04201 58.1343
-11.2556 -213.465 43.6623
-4.8719301 -195.196 45.0201
-9.8867903 -216.69701 44.139198
-16.734699 -166.522 46.002201
-19.867399 -221.834 52.6021
-15.7695 -165.423 42.8647
-1.24462 -171.522 50.470299
-4.8327699 -194.196 50.144798
-5.46105 -181.121 54.429501
-6.0275302 -163.327 43.176701
-17.4867 -183.85001 51.363201
-22.605499 -183.592 45.895802
-16.808701 -223.60001 43.4734
-15.923 -179.595 42.582401
-11.8987 -200.88499 43.491699
-24.095699 -233.692 44.5284
-7.8854399 -184.573 43.769798
-3.72595 -226.896 43.8871
-6.0993299 -215.688 46.335602
-8.7736797 -234.627 57.7006
-19.3349 -214.52499 45.095501
-5.3106499 -170.73399 56.791
-20.089399 -188.457 48.686501
-17.1551 -179.517 51.4762
-8.6412697 -232.77901 46.237999
-5.09902 -214.957 47.048801
-5.8745699 -184.42599 57.3545
-15.4199 -217.47501 44.162399
-7.2172799 -205.327 54.229698
-20.4086 -222.55499 50.722099
-25.128401 -224.32899 44.180302
-17.8325 -215.991 43.576401
-18.440701 -203.55299 47.757401
-8.6041298 -181.713 43.625
-23.599199 -225.29601 44.576099
-7.0927801 -222.358 45.711399
-8.0708904 -232.76401 44.875401
-18.5942 -209.20799 43.473499
-26.325701 -222.272 45.655602
-8.6579103 -232.558 53.7509
-4.8565202 -173.21001 45.6311
-17.7784 -193.967 46.638901
-5.1849699 -174.42 51.973999
-4.8717899 -189.976 53.3792
-19.145599 -221.909 43.6847
-11.3034 -209.19501 43.594002
-0.19243 -187.269 45.091499
-6.4127998 -198.355 48.767399
-9.1055002 -170.998 43.044399
-6.9735198 -212.976 42.387299
-7.5634799 -168.707 44.744301
-8.6398602 -238.12199 53.837399
-8.6540899 -167.317 43.7141
-10.3485 -204.36501 44.975498
-10.6406 -208.465 44.428902
-13.6018 -219.67101 43.910702
-18.704901 -204.58501 46.938599
-3.3264101 -219.855 44.4501
-4.5044999 -184.95599 48.256401
-25.986601 -204.314 43.244202
-10.8236 -189.845 43.391701
-19.481199 -184.54601 52.481701
-1.31346 -179.161 44.370399
-5.8695502 -184.24699 58.871498
-19.518999 -219.739 52.428001
-11.3599 -207.528 43.602001
-19.799299 -206.13901 51.973499
-3.26824 -228.733 43.998199
-6.8427901 -204.78101 49.429401
-5.0750799 -168.37801 53.945999
-18.4394 -185.32201 49.640701
-17.311899 -182.42999 51.1936
-21.0791 -213.755 45.270599
-25.284599 -218.326 45.5634
-14.69 -223.99699 43.714298
-20.082899 -206.25101 43.489899
-7.6606798 -183.701 43.661701
-17.8664 -168.784 49.0298
-1.4895 -182.47099 49.845501
-7.6897898 -222.23399 52.757599
-10.359 -223.02901 43.791401
-4.1636701 -171.489 53.6978
-0.27568901 -176.157 44.7201
-2.24352 -182.83099 50.315102
-19.1891 -195.14799 48.798599
-25.676201 -227.75301 43.659401
-16.796 -166.64101 45.007702
-22.975901 -224.75301 43.698399
-18.233299 -200.46001 51.551201
0.38388699 -174.694 46.171799
-17.2001 -180.05 50.1931
-5.08674 -192.463 53.534698
-16.347401 -226.12801 43.5942
-14.5689 -205.243 44.5467
-5.5255098 -180.884 52.791801
-5.9881001 -194.034 58.488701
-13.9049 -187.271 44.8568
-5.7596502 -232.439 53.130199
-6.1634598 -232.701 53.471901
-4.7656298 -181.41701 49.398602
-8.7574196 -182.528 43.982601
-17.7726 -184.686 56.231499
-16.924101 -177.86099 45.176701
-25.343201 -235.55299 45.789101
-18.923901 -203.65199 47.454399
-15.5693 -218.093 45.247898
-18.228001 -197.758 53.666901
-19.9571 -213.062 52.1945
-2.33797 -221.651 45.449402
-7.7932801 -218.563 51.130798
-12.2252 -180.095 42.985001
-17.275999 -175.063 56.1614
-16.48 -170.093 48.007599
-14.1396 -214.271 43.589001
-6.57725 -232.11 51.4804
-16.229401 -166.5 46.669102
-16.605801 -173.98199 43.153999
-7.3016901 -207.24001 53.158501
-7.14679 -211.56 45.037899
-19.493999 -218.44701 58.031799
-27.3974 -232.703 43.527802
-17.709101 -191.938 49.368099
-19.275999 -205.558 53.8442
-18.333599 -197.83501 56.767601
-14.5534 -228.13 43.9683
-16.8967 -168.90199 45.870998
-14.3243 -168.35201 43.524101
-22.198999 -184.547 48.736401
-5.4836001 -179.735 54.008099
-1.03149 -185.558 45.665901
-17.7069 -190.091 46.047501
-13.579 -201.75301 43.4203
-4.3212299 -164.19299 45.020699
-5.5897498 -183.752 52.451199
-18.9578 -203.172 49.0462
-5.9036002 -217.125 49.420898
1.20654 -186.724 46.260601
-0.94813597 -222.38499 45.053001
-6.1772199 -203.054 54.337399
-17.952499 -174.34 52.718102
-19.042101 -209.67599 54.835098
0.41848299 -168.745 47.091999
-17.2453 -219.332 44.090599
-6.9368901 -205.793 47.444099
-15.2861 -195.797 44.665298
-5.3028302 -175.81 54.571201
-7.18362 -214.761 44.006699
-4.8288698 -178.755 44.766998
-17.659201 -193.172 43.864799
-3.48242 -232.438 50.309601
-0.223213 -231.459 45.0881
-14.7001 -175.793 43.2533
-18.018999 -190.686 47.542198
-2.4373901 -230.841 44.0807
-20.26 -194.758 49.0574
-6.5309501 -199.623 48.053398
-19.6401 -210.97 54.483898
-5.7051802 -184.31 55.638599
-1.74176 -174.66901 48.9823
-11.388 -178.716 42.973202
-22.057199 -224.55499 46.171299
-18.737301 -210.146 46.382198
-1.0497299 -167.258 45.561298
-17.1724 -182.87601 47.787601
-7.0214 -208.62601 52.451599
-7.3467798 -203.121 43.8008
-6.56317 -232.731 46.033699
-13.5758 -195.272 43.357899
-20.1691 -193.76801 52.2047
-4.43397 -196.674 44.7234
-7.6027699 -211.75 44.942902
-5.6241498 -191.01801 44.73
-5.87463 -192.145 55.154301
-5.7493501 -185.48199 54.283199
-8.4709597 -177.351 44.2346
-11.9274 -200.39999 43.467098
-9.2196903 -237.961 55.168701
-6.3161898 -197.571 46.781502
-25.2997 -223.758 45.524101
-8.0886497 -220.493 44.0107
-7.4753699 -232.03 57.903301
-6.2969198 -217.05499 45.8918
-18.633101 -180.13901 49.363098
-9.3014498 -203.71899 44.788502
-8.7055101 -235.39301 51.038502
-18.878901 -176.925 48.5182
-6.6698399 -212.07401 54.2369
-17.8878 -196.73399 46.041401
-14.0795 -174.116 43.742699
-8.6152897 -221.57201 53.463902
-15.1003 -216.92599 43.738899
-11.8973 -191.80701 43.386501
-4.2453599 -197.951 50.1376
-23.647301 -182.966 48.5648
-5.5900302 -200.927 43.815102
-7.2150798 -214.166 45.7883
-4.8491502 -172.651 46.506802
-7.29667 -215.315 58.404598
-2.2677701 -231.765 48.095699
-11.717 -218.73 44.383701
-6.56144 -226.2 43.791
-23.0282 -229.062 43.5075
-4.8803201 -197.745 50.218201
-6.0152102 -232.74001 44.968601
-14.6547 -182.30499 44.0145
-12.4822 -201.058 43.497799
-20.545401 -186.623 50.033199
-5.6785002 -182.05499 54.865601
-20.1444 -222.23 49.732399
-9.1491404 -191.55 43.382301
-7.49547 -192.528 43.513
-16.0765 -221.383 44.721699
-5.91607 -230.595 43.938
-13.945 -172.29601 44.398102
-4.1051998 -232.48 49.09
-18.8853 -180.571 53.002701
-12.6082 -222.895 43.690701
-3.3503399 -221.364 47.161098
-9.2536802 -237.99001 54.68
-3.48142 -177.02901 45.377899
-17.967199 -206.90601 43.477501
-14.4048 -191.24899 44.226299
-21.423599 -232.157 44.120998
-20.682501 -201.382 44.583801
-6.2354202 -196.69701 51.871399
-2.74103 -178.356 48.695801
-26.332899 -234.267 43.957401
-14.9344 -211.17799 44.2752
-19.837799 -211.845 44.695099
-4.7557602 -172.20799 43.937801
-12.4788 -212.552 43.601002
-19.1429 -212.63699 58.1408
-4.95186 -195.106 53.5392
-27.2556 -232.80099 44.1124
-12.4816 -200.58099 43.4716
-7.3203902 -217.504 55.2542
-9.4408903 -205.92799 44.550301
-4.5521898 -177.384 55.451801
-7.3512402 -208.30099 57.923401
-17.562 -172.935 54.922798
-18.0513 -198.119 48.836102
-6.0314002 -187.63699 55.977001
-11.086 -209.98399 44.716599
-15.7115 -164.271 42.8367
-17.939699 -187.8 46.022099
-5.0514798 -171.77901 54.696899
-7.7416701 -172.575 44.063202
-11.9235 -212.002 43.599201
-10.3202 -219.382 44.391399
-7.5829 -169.114 44.357101
-6.1662502 -195.405 46.042
-5.95046 -213.37399 45.191601
-6.3544102 -195.813 46.218899
-7.5082402 -207.42 53.585999
-4.3236299 -228.61 43.941101
-19.7001 -218.948 44.055698
-17.4755 -185.933 50.2812
-16.4907 -221.089 44.611698
