# .PCD v0.7 - Point Cloud Data file format
VERSION 0.7
FIELDS x y z
SIZE 4 4 4
TYPE F F F
COUNT 1 1 1
WIDTH 1602
HEIGHT 1
VIEWPOINT 0 0 0 1 0 0 0
POINTS 1602
DATA ascii
-0.46524 -165.987 50.487801
-28.7379 -226.222 47.840302
-17.948 -193.46001 58.849201
-0.122315 -188.30701 49.8862
-3.7120099 -219.71201 49.8713
-6.1795702 -196.431 58.577599
-4.5620999 -164.903 46.179798
-22.5916 -187.673 44.951302
-22.0854 -173.511 45.819901
-6.0369802 -188.155 59.524601
-8.1125498 -212.375 58.713402
-22.735001 -194.218 48.312199
-5.8800302 -180.60899 59.3274
-26.8463 -204.244 43.877102
-9.7099504 -233.589 44.1618
-0.85844302 -231.22501 52.941601
-9.2084703 -241.103 56.7827
-0.90938097 -195.605 46.1166
1.91316 -176.55901 46.1838
-2.9814701 -187.314 53.602501
0.302497 -213.903 47.137699
-8.0811501 -215.01801 59.5327
-0.33959901 -191.457 50.020302
-16.794001 -173.798 58.379501
-17.5236 -174.948 58.402302
-18.554399 -232.13499 44.022301
-23.224899 -187.853 45.614899
-2.9331901 -190.118 48.792801
-16.5124 -166.423 50.886002
-21.4655 -220.67799 51.519402
-6.9222598 -214.71201 58.9118
-9.17103 -240.14799 57.266399
-22.7232 -225.17999 56.173
-1.92584 -220.55299 49.706799
-22.787701 -194.896 48.332199
-6.43153 -206.851 42.336498
-7.5073299 -222.39 51.715599
-19.990999 -197.772 46.146801
-1.36663 -196.411 49.487598
-27.5961 -235.73 48.894501
-3.5465 -195.00301 44.702801
-21.811001 -184.44099 45.980499
0.271833 -219.64101 45.014702
-2.82478 -174.533 53.549702
-3.63396 -231.617 56.734699
-8.2014503 -217.028 59.543098
-20.397699 -169.325 49.447498
-9.1245003 -239.71201 57.828499
1.9024 -165.392 44.759201
-7.7406602 -222.17101 55.287399
-17.9891 -192.28101 41.57
-23.3305 -185.55299 45.7738
-0.17877699 -167.217 44.682098
-18.9014 -234.717 53.3857
-6.0738902 -186.785 58.966702
-19.857201 -234.705 50.538502
-0.82381302 -171.289 47.0928
-2.4793701 -187.765 49.704102
-22.2857 -184.407 44.903999
-21.0026 -207.257 52.150299
-0.61727101 -171.77 47.1035
-22.5303 -184.408 46.105202
-23.0208 -225.265 56.875
3.3587999 -179.84 45.128502
-22.499399 -211.62399 52.100601
-18.2868 -187.136 58.8666
-19.1227 -174.314 52.5261
3.53318 -180.55499 44.383099
-18.6973 -206.08501 59.206501
-22.4167 -229.172 46.446899
-21.697901 -176.46001 49.202702
-24.748699 -213.61 43.545898
-19.001301 -210.549 58.618401
-18.9251 -208.896 59.182201
-0.30619499 -191.817 49.617001
-17.6735 -179.47501 57.9804
-25.8428 -215.894 44.414299
-1.78749 -190.263 46.141102
-17.316601 -213.15601 42.170101
-23.270201 -200.217 48.9366
-3.72753 -196.847 45.1548
-1.49541 -196.851 49.332901
-3.39078 -217.252 48.978401
0.53379101 -168.664 50.032001
-19.512899 -173.18201 52.9179
-20.1166 -234.092 52.580799
-9.2091599 -243.42101 54.1665
-24.065399 -198.37 48.697601
-1.03364 -165.229 44.5415
3.08762 -172.07201 46.097
-17.9886 -186.55901 58.525799
-20.6236 -235.226 47.372398
-0.31908 -197.756 46.426899
-0.64307201 -171.783 49.421299
-2.9252801 -190.217 45.4105
-6.74367 -198.19901 59.185001
-28.828199 -226.24699 47.223202
-4.2340002 -172.547 41.422001
-0.55312598 -195.47301 49.6772
-9.2030401 -241.987 56.188099
-5.7442098 -180.44501 58.680199
2.76773 -179.981 44.585701
-21.311501 -237.978 48.981499
-0.088961102 -177.47701 49.262699
-4.04002 -215.87801 44.5611
-27.955799 -226.222 50.000401
-3.46717 -189.761 53.561699
-0.130872 -166.57899 44.509399
-23.7124 -206.14 48.668598
0.65506798 -165.937 49.9245
0.26574701 -231.09599 50.317699
-3.9272201 -168.84399 56.725601
-3.6375699 -206.668 51.154301
-8.06462 -211.465 59.202301
-5.0734401 -176.77299 58.5723
-17.467899 -174.12601 58.194
-26.3216 -215.896 44.439301
-8.4945803 -221.40601 59.519299
-3.76947 -193.19099 53.530399
-6.4394498 -194.041 59.3601
-15.5534 -182.366 46.041901
-17.513201 -177.061 58.0998
-8.1107998 -217.644 59.3507
0.67983401 -183.8 44.420799
-22.237301 -173.879 43.6689
-9.1458998 -240.211 57.868099
-21.392799 -176.655 48.226898
-21.373501 -176.633 48.719398
-19.898199 -221.95799 58.9086
-5.0585399 -206.414 54.411598
-20.205099 -181.521 49.6605
-15.241 -162.569 42.7934
-27.123199 -226.14301 52.124901
-4.1317201 -177.517 56.143002
-8.3023901 -218.35699 59.5028
-22.5574 -238.683 50.507599
-4.52492 -220.23 49.862
-8.4397097 -238.30299 49.489201
-25.107 -195.26801 48.875599
1.49541 -185.40199 44.011799
-16.876801 -168.75101 57.8848
-20.4893 -198.144 52.145302
-5.0862298 -169.56 58.451302
-5.3080502 -173.604 58.504002
-5.3912702 -175.047 58.969002
1.85929 -184.26199 44.205101
-15.9479 -162.67799 43.716702
-6.1194501 -188.866 59.575901
-20.855 -212.41499 46.183201
-7.9401999 -222.467 59.519199
-6.14537 -215.57401 56.1381
-24.238501 -238.92799 51.398499
-21.028299 -205.858 52.203499
-22.4531 -202.095 48.345901
-19.120399 -234.56599 52.917099
0.50130802 -169.29401 50.057598
-17.943701 -182.83299 58.542099
-3.1947899 -214.291 45.600399
-0.87505502 -195.487 50.121601
1.59602 -190.68201 45.1688
1.9937 -176.685 44.441399
-0.49551401 -190.123 49.477901
-3.6801901 -195.222 53.446301
-19.916 -234.65199 49.4137
-20.760799 -223.058 58.231602
-26.770201 -201.69099 43.469601
-0.57551098 -166.155 43.3717
-8.6247301 -236.315 47.1273
-19.991501 -234.92 53.201
-3.54198 -173.582 41.6064
-18.4832 -171.222 56.166302
-21.537001 -205.07201 52.094898
-19.791901 -169.28101 52.854599
-18.617399 -175.832 56.208302
-28.092199 -236.245 46.315201
-6.0385399 -191.91299 58.984798
-19.766899 -169.23 49.4874
-18.8708 -185.168 45.564602
-9.4092102 -221.065 46.670898
-24.108801 -197.76601 48.738201
-21.9069 -209.63901 52.1147
-0.092599899 -187.492 50.356998
-20.198999 -233.854 44.269299
1.40943 -183.688 44.8195
-18.662399 -166.88901 46.033501
-20.487301 -182.31599 52.774502
-21.2903 -207.72701 49.3013
-4.1902299 -163.349 43.4025
-6.3962898 -162.952 43.154598
-16.3284 -166.013 49.4291
1.96508 -165.384 45.333099
-20.2701 -196.998 52.133598
-20.5091 -192.655 52.132801
-25.924999 -201.819 43.871799
-18.064699 -185.28101 58.289902
-28.4482 -226.323 43.633701
-18.947201 -169.245 46.072102
-22.360001 -183.882 44.526501
-3.2076499 -165.867 46.379299
-2.0178699 -167.302 44.7789
-17.9007 -183.742 58.567799
-21.783899 -207.62 48.209702
-19.615299 -179.722 53.166302
-0.146964 -195.07899 46.491001
-0.185422 -166.10699 45.622002
-22.608801 -237.093 47.209
-3.18572 -185.39301 44.5937
-3.84147 -172.20799 56.676102
-20.9086 -201.58299 52.138199
-24.9827 -197.979 48.736698
0.774535 -172.606 45.588001
-28.2341 -226.26801 48.204102
-1.67415 -166.16499 50.4203
1.37243 -206.004 44.8988
-1.46109 -165.22 45.494099
-25.955601 -214.168 44.030201
-20.254601 -222.425 58.293701
-22.4652 -210.746 52.050701
-20.6754 -233.38699 44.8736
-17.1283 -207.062 42.123199
-21.907301 -178.187 48.554298
-21.5688 -173.74899 43.661301
-2.97663 -220.657 49.510101
-2.5307901 -231.47301 55.620701
-9.7180595 -163.105 42.993698
-4.2530599 -193.896 46.4258
-21.3428 -180.528 44.667599
-20.202 -233.742 53.1777
3.5666699 -180.009 44.452499
-5.1926498 -170.2 59.0242
-1.53413 -198.099 50.245201
-0.373101 -192.856 50.076401
-18.5648 -169.118 56.160999
-17.5285 -180.116 57.635201
1.27245 -220.03999 45.297401
-20.507601 -180.655 52.991901
0.60931897 -173.151 45.494701
-0.118369 -176.967 49.432301
-9.1582403 -163.099 42.995399
-20.892599 -214.13699 52.006199
-3.5216999 -186.30299 45.838299
-4.0857501 -220.83299 49.578999
-21.902599 -169.315 49.3745
2.3257999 -191.799 44.4259
-21.1551 -196.38699 44.730499
-16.2684 -163.74899 44.9734
-22.297501 -180.59599 43.140598
-6.4078202 -236.42799 49.733101
-16.6646 -167.547 54.447899
-9.1042805 -240.672 57.315701
-6.3888302 -196.38 59.413502
-17.827999 -182.07201 58.510502
-19.200001 -215.543 58.888302
-18.8304 -208.106 59.179298
-17.132 -166.423 51.109699
-9.5318499 -242.994 54.817799
-6.18185 -213.767 40.857201
-23.3706 -201.30901 48.8647
2.1431201 -190.50301 44.9911
-28.5189 -236.21201 45.424301
-7.7807498 -222.146 55.823601
-6.6617098 -236.60001 50.944
-17.4692 -174.758 57.925598
-7.79603 -207.44901 59.202202
-3.0695601 -190.168 46.5214
0.51662099 -178.269 47.235401
-24.9156 -225.825 55.453201
1.69245 -190.62399 46.375301
-20.4088 -184.88499 52.548698
-21.835501 -207.08 49.2799
-22.990999 -224.136 57.721401
0.93671602 -190.493 46.470798
-21.602501 -175.793 48.269798
-9.1922798 -241.91701 52.999001
-20.453501 -184.10899 52.883301
-7.2754002 -198.965 59.120098
-22.9111 -225.244 55.293999
0.0070781698 -230.358 43.8111
-22.105499 -238.541 50.181801
-3.51665 -220.56599 48.988602
-20.299601 -195.295 52.110199
-24.7544 -213.616 44.119999
-1.82951 -177.937 46.383301
-21.483999 -173.728 42.929298
-8.0797195 -213.58501 59.573601
-24.3925 -206.31799 48.844601
-21.924299 -214.17 45.918598
0.050234798 -180.282 46.998798
-21.9305 -211.81599 52.211201
-22.534201 -194.771 48.9743
1.71364 -184.18401 45.424099
0.75451201 -168.186 45.4538
3.4842401 -179.465 44.473099
-5.0274601 -167.867 53.952
-19.733999 -174.03101 44.926998
-24.625099 -173.58501 44.442501
-2.94612 -175.10001 41.560101
-19.097401 -213.62399 58.618
-21.960699 -179.97701 48.482399
0.098478802 -215.099 47.234501
-24.1348 -223.479 52.213402
-4.3681402 -164.366 45.5723
-4.5662198 -164.877 46.687401
-22.5238 -186.065 44.903301
-20.245899 -194.235 49.055302
-21.1618 -196.63901 52.142799
-24.7925 -213.612 44.678398
-25.2206 -224.12399 52.207699
-4.1834002 -163.10899 43.905102
-6.9063802 -218.377 58.992802
-21.112 -195.201 46.198502
-7.6028199 -204.575 59.0783
-25.181801 -201.713 43.176498
-5.0995002 -215.92999 49.788399
-0.97614199 -166.063 50.4589
-1.88951 -215.216 49.4133
-28.5886 -226.312 46.000301
-19.232 -167.151 52.887299
-20.8708 -169.476 49.4137
-19.085501 -182.24899 56.281101
-17.729601 -180.64 58.410801
-1.96855 -185.42 44.311001
-0.32664901 -166.21001 46.4226
-9.0185003 -238.55701 58.584
0.053737201 -190.36301 46.689602
-5.6275802 -178.772 59.033699
-25.465401 -215.825 43.847198
-21.2791 -234.466 44.314201
-0.33875301 -168.70399 50.4692
-9.1930599 -241.092 52.028198
-20.98 -195.94099 52.0648
-18.443501 -171.701 56.178699
-2.0631599 -190.24001 46.711102
-0.210237 -186.871 50.362701
-21.914301 -179.418 48.392101
-19.236099 -216.10699 58.983398
-4.9003201 -207.509 49.815399
-1.67563 -215.06 47.028702
-18.307301 -200.661 59.0826
0.54053199 -169.228 45.5396
-1.97772 -231.239 54.5602
-7.9542298 -209.873 59.185501
-24.0378 -225.618 53.802101
-0.26703599 -167.39799 50.4902
-5.83428 -162.892 43.187901
-2.51613 -187.52 50.487999
-25.0809 -196.271 48.892601
-14.0308 -162.745 42.781399
-16.812099 -166.933 52.232498
-21.2936 -176.033 48.947498
-0.72783202 -166.571 50.458401
2.09162 -190.388 46.998001
-24.240801 -183.621 44.5112
-8.0839701 -212.68401 59.1534
-5.9773502 -215.286 41.956902
-26.4086 -201.931 43.936001
-8.0446396 -239.084 50.636398
-8.2110205 -215.651 59.566299
-21.003901 -192.813 52.111801
-22.8283 -206.14 48.996399
-1.06367 -197.429 45.8311
-21.0553 -173.992 43.887699
-22.1388 -204.98801 48.3288
-5.3117099 -173.528 59.000099
1.99717 -190.58299 45.990002
-17.7735 -189.90401 59.108601
-9.1014996 -240.19501 51.335098
-1.83617 -200.336 50.2099
-17.569401 -176.257 57.940601
-24.3557 -185.586 45.159
-21.3076 -174.964 42.815399
-16.3606 -165.96201 50.2019
-5.9224 -236.308 50.958
-0.17320199 -196.82001 46.586498
-18.0123 -188.255 59.109901
-8.38941 -220.011 59.504002
-18.1185 -196.67101 59.033501
-18.6052 -170.054 52.162701
-18.941601 -179.33099 56.264999
-4.8486099 -204.474 51.0583
-4.2007198 -194.418 53.52
2.6807799 -177.06 45.574402
-2.06247 -167.287 45.578201
-24.750299 -183.495 48.8391
-22.7348 -186.313 45.809799
-21.5602 -175.58299 49.490601
-25.9935 -239.009 52.4585
-6.9561901 -163.343 43.019798
-5.4004898 -210.394 54.353699
-1.43964 -197.996 49.4217
-19.2887 -174.075 44.521999
-14.1376 -231.34 44.123501
-5.1412702 -211.765 54.237301
-19.823099 -184.84 51.898602
0.46610799 -170.187 50.048901
2.77459 -179.65199 44.932598
-28.929199 -230.047 44.068501
1.8111399 -170.99001 50.109901
3.1300099 -179.772 44.322601
-3.4414599 -214.69099 47.118698
-20.610201 -233.98199 53.077801
-7.5014901 -222.30099 50.411499
-5.25565 -172.38 59.182999
-3.46175 -172.59801 42.860699
-23.58 -186.62801 45.819698
-27.014099 -226.11501 51.358398
-17.8538 -183.08501 57.909302
-16.2775 -163.724 45.527
-23.6367 -195.187 48.423698
-19.5362 -220.239 59.049599
-8.1236496 -221.963 56.726501
-3.9572501 -169.513 56.727901
-2.25789 -169.76199 49.0299
-25.935499 -202.651 43.2248
-7.67348 -239.37601 57.635601
2.4411199 -168.286 50.411201
-18.7048 -206.577 58.7393
-22.8375 -207.341 48.199902
0.46889901 -229.14 45.319801
-25.888599 -225.95399 53.679501
1.37027 -176.48801 44.2644
-13.5752 -162.46201 42.7192
-4.5496101 -215.97701 44.717999
-20.393101 -180.548 45.270199
-19.8713 -174.05499 44.409401
2.78334 -175.38699 44.626801
-8.4897699 -234.56799 44.426201
-6.4980502 -196.54401 58.922199
-2.52703 -179.94299 46.819801
-1.16915 -170.11 47.054298
-21.8993 -172.002 43.785801
-22.7208 -189.166 45.333698
-20.786301 -200.989 52.1404
-1.36775 -170.185 49.026501
-1.06086 -198.006 46.131199
-4.0804701 -205.78999 51.146702
-9.2157001 -241.565 55.713402
-25.269199 -225.778 54.529499
-26.6656 -204.14 43.138901
-26.632999 -224.58701 43.6241
-5.0020099 -218.38 53.067001
-6.25771 -220.562 56.1917
-22.781799 -183.98801 46.103001
-4.4997602 -218.241 49.829899
-22.871099 -180.974 49.178699
-3.2727499 -214.661 49.2742
-28.5256 -226.354 48.991299
-1.47636 -197.51401 50.054401
-17.087601 -169.16701 58.094799
-20.8969 -183.834 52.7439
-2.73404 -219.556 49.3209
1.96411 -184.28999 44.913502
-16.2185 -165.423 48.8731
-22.2125 -169.353 48.871399
0.46531299 -178.89101 47.227001
-24.854799 -199.052 48.796501
-24.6947 -184.08501 49.033199
-20.2729 -169.203 48.455101
-1.80598 -190.33299 48.695599
-17.668501 -190.439 59.173599
-17.773701 -191.629 59.0881
-8.2155399 -216.308 59.584202
-6.2100902 -189.61099 59.5205
2.0738201 -190.22701 46.512199
-3.3009801 -214.75301 49.768002
-21.3647 -179.144 49.721802
-22.5194 -184.808 45.0667
-24.6744 -184.173 48.509201
1.7132601 -186.451 46.882
0.219377 -165.55701 44.6063
-23.8403 -239.73 51.3279
-2.7235899 -218.508 49.599499
-4.9246502 -192.289 57.138699
-18.1332 -187.817 58.942902
-6.5044899 -197.024 59.136398
-22.2055 -168.784 48.401299
-24.5343 -169.39101 49.115101
-8.0665398 -232.437 59.222599
-5.1480198 -207.436 51.047901
-4.74647 -201.125 54.168201
-22.6105 -224.77699 57.398998
-19.6066 -221.369 59.263599
0.35635599 -228.351 45.594002
-7.8885598 -209.01601 59.1231
-24.647699 -217.88699 46.135502
-8.6086903 -241.257 56.297001
-0.21326099 -189.87601 49.804298
-23.647699 -221.33099 49.276798
-21.1733 -196.888 45.1642
-21.996599 -224.411 58.1478
-5.04105 -169.418 57.8493
-1.73786 -207.68401 44.810101
-4.9639401 -204.149 54.404301
-5.6227398 -179.46201 59.0252
-2.6358299 -169.627 53.705502
-2.8113401 -219.855 49.819698
-1.27633 -174.007 47.0135
-22.555599 -187.179 45.174599
-7.7539501 -206.59399 59.108398
-20.200701 -234.754 47.127201
-22.146299 -177.457 42.923901
-4.9927502 -168.024 55.092201
0.319033 -179.19901 49.655102
-0.895401 -194.69 45.562
-0.2429 -169.758 50.5121
-18.0527 -188.73 59.2038
-28.3561 -226.35201 46.657799
-20.282101 -180.899 44.1689
-2.28444 -166.39301 45.766102
-20.576599 -174.058 45.386902
-28.8979 -226.369 46.7033
-26.457701 -226.05 53.274101
-25.2959 -201.37601 43.872002
-1.31986 -231.375 53.919102
0.052924201 -197.36501 46.3745
-6.06113 -212.89101 40.8526
-0.0366669 -187.19701 49.6049
-21.9515 -211.748 51.653702
-2.96755 -231.481 56.341599
-25.870501 -206.407 43.760502
-19.9842 -180.30099 52.9445
-1.7259901 -206.625 44.862
-2.5519199 -172.00101 53.680599
-22.262501 -173.20599 44.6092
-5.7327099 -231.995 58.252399
-8.8136396 -236.895 59.737499
-24.541201 -195.65199 48.8964
0.90774697 -226.965 44.061901
-19.507999 -168.769 49.4482
-19.163099 -176.92101 52.990101
-22.564301 -186.563 45.260799
-17.7003 -189.162 59.268002
2.3236301 -192.299 44.565498
2.1684599 -186.791 46.366402
-6.8667202 -215.79601 41.9632
-2.17944 -172.651 42.3335
-0.91690999 -197.19099 46.430599
0.443266 -169.944 45.547699
-5.0564198 -206.91701 54.403099
-14.6926 -230.995 44.080399
-6.2557702 -219.19901 56.171398
-6.7407799 -212.59599 42.1385
-3.6477301 -218.31599 49.859699
-4.0398002 -198.105 48.644402
-1.50605 -166.908 50.4198
-21.9883 -213.035 46.165501
-5.3466802 -174.617 58.751801
-6.0623698 -209.967 51.1399
-22.009701 -180.409 45.313499
-18.2274 -199.045 59.0606
-0.33214799 -165.433 45.058601
-17.2591 -173.511 58.586601
2.3141999 -187.07001 44.937901
-18.626801 -204.448 59.207199
-4.3113198 -216.513 49.816601
-20.5028 -214.10899 54.884602
-23.8104 -221.37199 48.8139
-5.8052602 -215.14301 41.455299
-0.97792703 -167.015 50.4505
-3.9807401 -163.80099 45.037701
2.9472401 -184.39 50.236698
1.32166 -190.60201 45.623001
-6.3817601 -192.771 59.1092
-23.061199 -205.97701 48.005901
-3.1292 -187.783 53.776402
-10.2719 -163.205 43.003799
-21.872801 -210.64301 52.069401
-22.3305 -184.396 45.432301
2.4326401 -171.78799 45.513302
-7.2412801 -235.541 57.567501
-22.436501 -209.535 52.063202
-4.5055499 -165.093 47.115101
2.52635 -171.83701 46.1437
-18.2383 -169.707 44.4869
-25.8186 -238.838 51.686699
-2.30862 -231.349 55.132099
-24.671101 -225.757 54.5215
-22.6017 -186.071 45.390099
-20.320299 -182.95 52.7607
-18.447399 -202.38499 59.212601
-7.6691899 -222.317 56.7234
-20.937401 -192.332 52.060299
-3.69958 -220.36301 49.921299
-22.7946 -194.185 48.825001
-3.89644 -172.25999 41.002998
-0.43431601 -192.34801 49.5434
-7.8503699 -222.161 57.633301
-0.158842 -166.047 45.0284
0.52359498 -190.541 46.8633
-19.6395 -234.774 46.871101
-19.2316 -168.043 52.8531
-19.144899 -174.073 45.673901
-24.285299 -237.78799 50.592499
-23.1542 -237.052 47.213299
-1.88255 -165.248 44.736
-4.8106899 -166.841 51.934502
-0.59535301 -164.967 43.317101
-18.7138 -207.076 58.7882
-22.5865 -228.576 46.4772
-7.5307798 -222.39101 52.198898
-19.212799 -214.826 58.866001
-28.080299 -226.024 47.2043
-22.6318 -180.355 49.623798
2.0660999 -189.625 46.725201
2.38746 -179.69901 44.458199
-7.79317 -208.27 59.217201
0.60276097 -168.08299 47.029202
-20.5916 -193.507 52.1371
-2.9832599 -172.94701 42.503101
-26.9011 -222.343 45.907101
-4.3980999 -168.97501 56.717499
-16.792 -166.561 51.877701
2.4576299 -179.41701 45.5466
-0.43288201 -191.884 50.216499
-1.1843801 -199.44701 44.2295
-15.7993 -162.327 42.858398
-0.91454601 -195.19701 45.8661
-18.6409 -173.758 56.107399
-17.970699 -189.44099 58.9165
-27.102501 -202.073 43.590801
-22.4951 -187.23199 44.704201
-25.3894 -215.078 43.878799
3.85813 -179.895 44.998901
-5.3390298 -178.89301 58.460602
-22.109301 -228.463 46.705898
-0.489916 -194.039 49.904999
-5.4826598 -176.19299 58.9599
-20.8197 -197.798 52.086102
-15.7872 -231.547 44.108002
-17.7547 -179.89799 58.416698
-2.8232901 -214.19 47.050598
-18.433599 -203.211 58.577
-5.7105298 -191.49699 58.896702
-22.7687 -207.67599 48.611801
-18.959299 -169.58501 52.601898
-21.6598 -173.737 44.736801
-3.07516 -188.18201 53.451
-16.8277 -168.974 58.507999
-5.8867502 -182.392 59.362598
-4.71667 -205.33701 54.432201
0.38312501 -179.23199 50.2799
-20.8039 -205.157 52.139
-6.0123701 -187.916 58.897301
-8.0657997 -214.30901 59.541401
-17.2327 -170.186 58.452202
-3.6482999 -194.64 53.535599
-22.999599 -195.198 48.874699
0.245506 -231.177 46.612701
-22.452499 -211.354 44.035702
-6.1902699 -218.70399 56.135601
-4.1504998 -173.07001 41.329201
-20.7626 -181.062 44.466702
-22.2197 -173.23801 43.511299
-19.9713 -234.871 51.494999
-21.389 -173.931 45.796299
-17.9296 -193.94099 58.938999
-2.1581199 -166.242 50.410301
-20.655199 -197.894 46.1562
-23.408501 -236.383 45.538601
-3.4112999 -179.907 46.653702
-16.621599 -167.286 53.052601
0.909908 -220.328 44.4842
-18.004999 -192.87199 41.592602
-27.598 -226.05901 51.702702
-12.4702 -231.955 44.065399
-6.3380198 -213.088 41.212502
-23.1017 -205.981 48.510799
-20.588699 -234.186 52.623798
-26.709999 -204.63499 43.1824
-22.9196 -225.41499 55.803902
-6.2728801 -190.10699 58.950199
-19.051201 -212.752 59.214802
-17.7635 -191.146 58.961498
-22.090599 -213.274 48.948002
-3.4800501 -214.993 44.881401
-20.019199 -168.77 49.395302
-19.716801 -181.429 49.676399
-19.6994 -174.05499 52.9221
-3.44732 -190.131 46.1371
2.7181599 -176.814 45.125301
4.1370602 -165.049 45.040199
-19.150999 -194.786 58.4016
-9.7280302 -163.67999 43.0578
-4.1386399 -162.741 43.375
-23.965 -213.427 43.4492
-1.99809 -190.245 45.4697
-0.21902201 -165.36099 44.473701
-0.83517402 -165.202 44.996498
2.7585001 -176.81 44.4491
-23.481501 -184.216 45.782001
-22.7047 -188.632 45.352402
-5.9147601 -212.08099 40.722698
-5.2859502 -162.854 43.257198
-17.7519 -191.366 42.1366
-28.475 -234.52901 45.349998
-28.051701 -236.20799 46.968102
1.86508 -171.91 46.101898
-5.5178099 -181.161 58.721199
-22.789101 -180.873 48.562099
-5.21523 -172.74899 58.509701
-3.47768 -194.985 45.255199
-22.8958 -207.526 49.176399
-27.952499 -221.27299 45.918999
-25.776501 -201.589 43.156799
-17.890301 -182.30299 58.0373
-20.6378 -180.50101 45.771599
-22.1196 -189.21201 49.764999
-27.214199 -226.133 52.803398
-0.28174701 -165.22 45.643501
-3.4407599 -192.216 53.4991
-8.1539803 -221.8 57.751301
-23.146099 -186.312 48.7929
-18.0023 -232.28999 44.0313
0.45950699 -231.161 48.252201
-2.7672801 -172.963 53.692799
-8.85116 -235.82001 59.555302
-9.0671701 -234.073 44.254398
0.384624 -180.216 49.492298
-4.56212 -213.39301 45.1404
-18.0327 -185.955 58.440899
-19.1444 -214.201 59.220402
-10.8248 -231.88901 44.0042
-5.2628698 -171.692 58.777199
-9.1904697 -242.489 53.830799
-19.6073 -234.59 53.373001
-20.280399 -234.819 46.6553
-18.7908 -166.41299 46.028702
-6.3710799 -215.263 41.590199
-8.0414 -163.27299 42.995701
-7.02737 -240.17101 51.120899
-16.162399 -164.332 46.578499
-24.7089 -182.892 48.705101
-16.6385 -169.108 57.616798
-7.4137101 -202.159 59.184502
-6.6591001 -215.532 41.129101
2.12255 -176.18401 44.235199
-21.467899 -169.11 49.368301
-2.9965 -169.293 53.662201
-17.6551 -177.51401 58.583401
-1.2355601 -168.685 50.436501
-0.73870403 -194.485 46.397099
-19.445299 -180.935 49.654301
-14.677 -162.653 42.788399
-19.9834 -181.819 52.851299
-26.612301 -238.95 47.932499
-25.5182 -225.901 55.032101
-7.7869301 -208.09399 58.275501
-0.46160501 -193.548 50.2304
-8.3984003 -220.618 59.413898
-23.3922 -173.54201 43.263
-26.343901 -215.35201 44.249298
-3.9765699 -187.155 50.2784
-22.024599 -188.914 48.826302
-18.052401 -195.927 59.0602
-18.8904 -182.162 46.027599
-19.728201 -169.427 48.168701
3.2241499 -185.571 44.343102
-0.17096899 -182.3 45.9548
-24.109501 -238.40199 50.948502
-3.63463 -212.424 50.7742
-20.3144 -204.119 54.871101
-19.646999 -166.90601 52.875401
-22.6047 -180.46899 45.0019
-21.862 -207.56799 49.2579
0.98441702 -219.649 45.141701
-21.571199 -173.99899 45.335999
-22.431601 -223.40601 57.689999
-19.572901 -221.464 58.4188
-19.8745 -180.56 45.544399
-21.819401 -213.713 46.0383
-27.445299 -221.46899 45.646301
-19.417299 -219.17999 58.832298
-4.9221902 -171.09599 59.094501
-5.3211002 -181.063 42.485298
-22.7309 -188.133 45.212101
-24.731199 -201.323 43.571999
-22.631701 -208.951 44.797501
-28.0168 -226.147 51.278198
-22.4825 -225.161 58.055901
0.87623799 -225.196 44.0788
2.2620499 -186.711 46.8811
0.82092601 -221.599 44.200901
2.6902101 -190.52299 44.808399
-23.128099 -239.774 50.931099
-18.037001 -191.649 41.513302
-16.659401 -169.62199 57.880901
-5.45052 -196.987 56.266102
-22.034 -173.782 45.288399
-21.528601 -173.993 44.2407
-19.561001 -199.509 58.5266
-19.113501 -212.032 59.307701
-6.4120798 -192.11 59.2827
-6.4735398 -207.539 42.403099
-19.902399 -234.74001 49.908699
-18.242701 -198.172 58.9286
-2.79181 -186.187 46.247299
-7.35076 -200.92599 59.109699
-22.434999 -209.035 52.064098
0.65916502 -166.40601 50.043098
-3.83602 -215.043 45.311199
-2.7346201 -186.946 50.2458
-6.3246799 -190.577 59.0284
-5.04456 -178.685 58.91
1.35163 -190.56799 46.869701
-2.5378499 -216.545 46.230099
-23.6054 -238.90601 51.1614
-0.81040001 -168.627 47.031502
-8.4457102 -218.94 59.591801
-2.3450799 -190.22701 46.1376
-18.7901 -207.306 59.206699
-23.196199 -200.13901 48.4702
-18.533501 -167.52 46.078602
-19.295 -216.729 58.8881
-3.5162301 -188.078 50.134201
-21.841801 -178.79201 49.4352
-16.2111 -163.233 44.387001
-3.5001199 -194.478 45.103199
-6.45297 -193.271 59.361099
-24.8263 -185.80099 48.565102
-4.90311 -166.505 51.0415
-8.0159101 -210.799 59.2164
-5.3896699 -211.036 54.3536
-6.0957298 -214.757 40.650799
-24.132799 -217.545 46.038101
-4.6230998 -219.435 49.861801
-21.157499 -195.064 52.4039
-5.1887002 -170.433 58.516102
-6.6967301 -212.72301 41.641102
-7.3604202 -235.017 57.467499
-22.371401 -207.672 48.303001
-18.9916 -211.408 58.717602
-0.133421 -176.33099 50.1889
-20.5002 -180.731 44.7505
-19.108299 -232.823 44.082401
-18.514099 -203.81 58.821301
-20.0753 -181.048 52.969299
0.82941902 -225.993 44.0811
1.7269599 -171.455 50.2603
-6.1505098 -216.08701 56.221901
-23.195101 -207.08701 48.906101
-13.0133 -162.592 42.763699
-1.6069601 -167.278 45.053799
-22.774401 -186.98599 45.7994
-0.390129 -231.957 44.101101
-5.0992899 -169.397 59.004398
2.3039999 -185.368 44.295502
-19.931801 -234.883 52.093201
-5.1668501 -207.511 50.4291
-20.989901 -223.244 58.729099
-21.364599 -176.74001 42.784801
-6.56287 -195.015 58.904701
0.78390503 -220.733 45.799999
-2.4746101 -169.043 53.6465
-24.5973 -200.089 48.812698
-1.53266 -199.561 49.901798
-0.65224701 -165.64799 43.332802
0.79483801 -190.642 45.193401
1.1526999 -166.394 49.947899
-16.1612 -172.575 42.4743
3.9809401 -165.019 45.624802
-1.09229 -197.69701 44.879501
-17.7192 -175.627 58.289101
-8.7687397 -212.843 42.254501
-19.656099 -181.211 45.3008
-22.762699 -184.317 44.484299
-4.5424099 -205.164 51.136902
0.36593699 -190.644 44.959499
-18.703899 -176.811 56.1451
2.3078201 -187.045 45.498798
-4.8812499 -170.86099 58.5849
0.54058897 -171.49001 49.8885
-24.8503 -223.57401 52.165298
-7.8755798 -222.116 58.618401
-18.5788 -169.758 46.080502
-19.0623 -176.43401 56.1507
-25.2694 -225.80901 53.934898
-25.2449 -201.903 44.180302
-5.1026602 -181.164 59.047798
-9.1972303 -241.815 52.194302
-21.5814 -238.112 49.646801
-23.253099 -225.47099 53.855701
-4.0735898 -231.55701 57.334301
-16.1467 -164.88901 47.679199
-8.8717899 -236.757 47.780399
-26.9175 -215.806 44.445801
-8.1778402 -234.88499 59.854401
-20.0014 -180.58501 44.7519
-3.4730699 -192.782 53.453999
-11.6559 -231.88699 44.0326
-0.53836501 -193.10899 49.536499
-21.9345 -179.209 49.668701
-6.5272198 -220.54401 53.046902
-21.243799 -197.41 52.102402
-25.801901 -225.944 54.408699
-9.2006798 -241.123 56.263699
1.16901 -171.61501 45.623199
-8.9265499 -210.24699 42.866001
1.27496 -220.183 46.2136
-13.0273 -163.133 42.756401
-21.3958 -220.728 49.343498
-20.790701 -178.94901 49.750999
-0.0878148 -176.75301 49.924599
-0.063886203 -187.769 49.8535
-28.169001 -235.845 49.051102
-21.013201 -168.89799 49.386501
-21.104799 -195.83501 46.230301
-4.92312 -171.35899 58.657501
-21.6579 -199.186 52.0476
-6.0682902 -188.65601 58.986099
-18.6273 -172.17 56.102798
-6.6715598 -215.10001 59.0737
-22.464399 -210.19099 52.095299
0.37966299 -231.01601 48.928699
-3.1898201 -214.005 44.912998
-6.27109 -241.099 51.145901
-27.3829 -235.979 48.3144
-20.822701 -169.388 47.996399
-5.7189102 -181.57899 58.951199
0.46538499 -183.72099 44.850601
-23.2181 -206.793 48.347698
-0.168534 -165.87 44.438999
-28.800699 -228.35201 43.761902
-18.789499 -173.108 46.0653
0.354655 -220.80701 46.081001
-4.34096 -186.474 56.6828
-22.080999 -211.35899 52.0681
-18.4482 -169.46201 51.822701
-4.95718 -210.81799 51.180901
-0.00417089 -171.534 49.5172
-23.844999 -200.093 48.615101
-21.168699 -196.66701 46.243301
-20.256201 -222.349 59.1087
-18.9944 -210.054 59.197601
-8.0490303 -221.992 59.214298
0.059320901 -181.76199 48.816502
-22.4825 -206.827 49.263699
-21.106501 -193.57401 52.0933
-21.510799 -194.216 49.008701
-17.312599 -171.99001 58.067101
-6.7200298 -197.72301 58.977501
-5.2411098 -212.65401 54.3022
-26.7432 -203.785 43.987301
-26.994699 -205.87199 43.257301
-19.9312 -234.688 51.0364
0.412182 -190.631 45.530899
-15.6301 -172.263 41.560501
-22.9886 -184.33501 45.032001
-3.9415901 -197.974 53.4608
-22.896299 -181.86301 48.544998
-7.7111201 -205.882 59.182098
-5.18537 -205.009 51.111599
1.17116 -183.985 44.499199
-18.0287 -195.103 58.9841
-22.6971 -189.13499 44.854599
1.6683 -183.69 46.1549
-19.148899 -213.47099 59.212002
2.1581199 -189.53101 45.236301
-17.2481 -171.17599 58.1138
-5.5834699 -177.33099 59.033501
-21.594299 -176.254 42.751801
-18.135099 -184.373 58.275501
-21.007299 -194.21899 49.028198
-5.7361999 -182.60201 58.952801
-22.013599 -190.28 48.041199
-25.3013 -237.51601 50.148102
-6.4566498 -214.62 41.103199
-20.2141 -233.993 53.629101
-2.63871 -216.75 47.1689
-4.4612899 -197.40601 53.539001
-4.7691498 -168.605 55.939499
-1.64082 -200.313 49.686001
0.221628 -231.17599 47.300098
-4.0064402 -163.427 44.440201
-26.689301 -220.556 43.876701
-9.45963 -242.48 55.746498
-20.8286 -195.229 52.053299
-19.331301 -217.548 59.228802
-8.5208397 -234.836 44.993099
-24.0464 -240.332 51.453499
-4.25245 -218.661 48.7658
-22.833799 -180.416 49.140099
-6.1759601 -214.864 52.956501
-3.4414899 -214.07001 47.153999
-3.2516999 -189.974 52.944599
-25.464199 -199.70599 48.868401
-3.7699699 -213.681 47.147499
-4.2289901 -218.89101 49.8554
-22.839899 -204.745 48.884899
-17.441799 -178.521 58.365101
-0.74318898 -169.772 47.049999
-2.3628399 -167.209 53.666801
-5.7063198 -179.638 58.551899
-22.630501 -201.205 48.993301
-7.6705499 -213.313 58.9827
-26.277 -203.995 44.080601
-20.902201 -176.7 48.3992
-0.252985 -166.744 46.4412
-17.1784 -177.383 57.879601
-7.8889499 -239.218 51.149601
-6.11306 -190.16901 59.567699
-6.0627599 -194.681 59.0779
2.7813001 -185.73 45.3382
-0.116122 -176.508 49.272701
-11.3703 -232.508 44.038898
-12.4955 -162.715 42.816101
0.580118 -173.674 45.464901
-4.6834998 -215.35899 53.036701
-25.1831 -195.825 48.737701
-6.7673101 -196.75 42.408501
0.81142402 -185.289 49.6548
-5.0884199 -179.401 58.976101
-5.5800099 -219.24001 49.8004
-12.4619 -231.33299 44.067902
-5.5051298 -176.65401 59.223301
-27.983801 -226.071 48.6987
0.53949702 -170.483 45.527302
-0.55926299 -194.89 49.962002
-1.95237 -176.414 41.245701
-7.74861 -214.151 59.2001
-22.922701 -225.414 54.573101
0.266444 -224.27 43.848801
-0.459144 -169.235 50.461399
-25.973301 -214.761 44.494999
0.118617 -223.461 46.0853
-6.1189399 -189.433 58.9734
-21.2642 -195.42999 52.047199
-4.6396198 -175.61501 41.427299
-7.3570099 -200.089 58.9617
-6.4834099 -214.10699 41.182999
-0.14137299 -186.521 49.685902
-16.8899 -173.32899 58.2407
-2.0036399 -199.207 49.6991
-22.1458 -220.67 51.6576
-27.189699 -205.851 43.918701
-6.89361 -232.319 58.940899
-18.610901 -205.00999 58.727901
2.9570501 -183.203 50.166
4.63621 -166.95 44.304001
3.3297 -187.10201 46.927799
-27.8785 -235.48 49.187199
-19.6514 -192.903 49.124901
-21.5774 -224.15401 58.284599
-2.3715601 -190.356 48.324699
-2.5671799 -216.743 46.665901
0.202324 -213.436 47.132999
-0.76574701 -190.31599 46.732101
-21.909401 -206.39 52.120098
-1.5822099 -190.269 46.675301
0.77601498 -167.44901 45.432701
-26.058001 -237.01601 49.7477
-4.7940102 -168.797 56.445099
-3.79282 -189.83 45.526798
-9.4621 -242.34 55.154499
-18.8493 -192.315 58.237
-20.248199 -179.369 53.046501
-3.16448 -213.817 45.433998
-23.3202 -238.524 50.743801
-1.07809 -170.685 47.044998
-5.2769499 -199.78799 43.679001
0.042132899 -222.436 46.130199
-7.1683402 -216.145 42.222
-21.3307 -199.696 52.094398
-4.9106698 -205.845 54.424801
-10.8272 -163.235 42.948002
-28.789301 -226.349 45.2411
-2.76192 -218.97501 49.360298
-16.3484 -231.686 44.100399
-21.291599 -178.569 49.773499
-15.2394 -231.461 44.096901
-9.3249397 -240.517 51.670502
-1.14398 -198.304 45.683601
-19.6315 -178.966 49.824299
-8.0628901 -238.939 57.6525
-9.1958504 -221.755 53.093201
-25.348101 -215.881 44.689602
-5.3187699 -181.869 58.9189
-21.3179 -176.52901 49.531601
-22.190001 -171.908 44.269402
-24.3624 -212.25999 43.413799
-1.59461 -167.27 45.775799
-20.2495 -178.881 53.1423
-19.163401 -176.993 52.106098
-5.9454298 -217.841 53.050201
-2.19013 -196.35001 45.509399
-24.109699 -181.84399 44.883598
1.32684 -183.78999 45.593102
-9.8731499 -232.993 44.122601
-17.185699 -169.86301 57.998901
0.34999001 -231.13 44.188301
-1.07555 -169.183 47.042
4.0458498 -166.09 44.3008
0.619443 -167.284 50.159698
-20.491699 -168.53 49.3853
-8.18151 -221.562 59.025101
-18.7719 -201.054 59.066399
-5.7318201 -215.09599 52.985802
-1.14099 -190.311 45.3428
-10.5676 -232.996 44.071999
-7.98353 -212.86099 59.620201
-22.961201 -181.89301 43.844299
-22.0886 -189.64999 48.9734
-8.0694399 -211.966 59.208401
0.68727499 -224.60201 43.987598
-1.51202 -197.51801 49.533298
-18.404499 -168.548 46.044701
-19.6775 -170.755 52.926899
-11.199 -231.592 44.0238
0.395082 -180.265 50.083801
-25.491699 -223.291 52.159801
0.17017999 -224.03999 45.5718
-4.19384 -217.532 49.834999
-20.907801 -180.48599 44.966702
-6.05056 -187.362 59.0065
-21.679899 -176.87601 49.479599
-22.194401 -220.664 52.133999
-3.4463799 -217.908 49.524399
-5.4045901 -172.213 58.674301
-9.9204302 -221.3 46.452702
-7.5151 -203.41 59.133701
-1.69163 -206.58299 45.488602
-20.378 -178.661 49.787998
-5.1607199 -168.935 56.753399
-5.46487 -233.45799 57.349098
-21.423201 -180.451 45.585602
1.66396 -180.381 44.336899
-5.3855901 -174.38699 59.196301
-7.4180799 -201.69501 58.978298
-6.2386198 -212.362 41.127201
-24.3923 -241.119 51.681198
-5.2588501 -215.776 53.037498
0.51129699 -230.66701 44.129398
1.65879 -185.48801 50.018501
-20.316601 -179.94901 53.105801
-1.10157 -167.274 44.8615
-20.059 -234.77699 52.6646
-3.4349201 -190.17 45.562401
-26.2623 -238.58701 47.951801
2.41852 -180.73801 44.866299
-27.4004 -226.17101 49.477299
-20.6133 -174.041 44.324299
-1.22688 -173.118 46.977901
-27.3258 -205.446 43.223499
-26.7153 -205.427 43.2486
-1.95443 -168.668 50.406502
-18.833599 -173.84 46.071201
-4.2919698 -173.92101 41.1744
-22.6157 -200.674 48.957699
-25.452499 -236.83299 49.516102
-3.51054 -195.686 45.3736
-24.348801 -225.746 55.164299
-2.9777901 -195.405 48.880501
-3.2957101 -215.618 49.697701
-6.6865001 -195.907 59.169701
-20.1618 -180.76199 49.688099
-4.8716502 -202.2 54.199501
-4.01688 -181.845 56.505901
-5.1086502 -168.82201 57.338001
-21.7097 -237.72701 48.892601
-2.5878401 -166.77699 50.412201
-28.864201 -227.575 44.5191
-26.743299 -226.08 52.6605
-16.6861 -168.621 57.4575
-3.3887601 -217.905 48.9939
-7.4492002 -222.414 49.4967
-22.361099 -207.347 49.262299
-20.6266 -174.084 44.912899
-8.8531904 -236.35201 59.560902
-26.309601 -235.16701 49.231201
-24.7479 -183.05 49.2281
-18.864901 -168.729 46.008499
-3.9031501 -195.455 48.6227
-16.1383 -164.819 47.201099
-8.83216 -232.573 59.5285
-23.433001 -217.64 45.906799
-1.0901901 -197.672 45.372002
-7.4925599 -222.41299 48.788101
-22.0098 -228.924 46.579601
-28.3794 -226.063 50.436699
-5.37674 -213.382 45.3727
-9.05583 -242.845 54.123299
-3.2203 -215.034 45.328602
-22.672199 -180.662 45.571999
-0.39630401 -168.05099 47.061199
-6.0921102 -236.69 50.666401
-19.4216 -169.32401 47.799198
-10.681 -232.44501 44.022598
-1.92711 -215.172 49.910599
-4.3643498 -168.397 56.286701
-3.53636 -193.703 45.1259
0.301936 -214.519 47.217999
-3.3694699 -216.776 47.125599
-18.8234 -174.22301 56.072399
-7.4630198 -202.649 59.162601
-2.75826 -214.87801 47.000801
-3.9507101 -211.65601 51.2075
-4.8207598 -203.549 54.371399
-18.942301 -209.127 58.715302
-19.1667 -173.52 52.9795
-22.2684 -168.688 48.8741
-0.186314 -189.526 50.408401
-20.444201 -169.629 49.021702
-21.4221 -209.18201 52.1115
-16.9965 -176.91901 57.644798
-19.0725 -212.55 58.642899
-24.280199 -239.83701 51.589802
-2.9922199 -187.873 49.583401
-27.9466 -236.17 47.536999
-3.8874099 -212.354 51.194
-24.970301 -238.414 50.890202
-24.156799 -225.644 54.678001
0.188161 -167.79601 47.073898
-16.630301 -167.62399 53.916302
-24.7974 -214.15401 44.716499
-22.072701 -212.59 48.906502
4.55934 -166.13499 44.316898
-8.9131498 -234.521 60.043201
-9.29109 -242.298 52.5625
-18.269501 -190.55499 41.894001
0.73112297 -191.586 49.9095
-22.031099 -201.005 49.024799
-7.2286401 -198.188 59.1642
-1.81619 -199.76801 50.240398
-4.7170701 -213.412 47.0755
-22.7244 -185.75999 45.7892
-23.1605 -205.493 48.841
-8.76332 -241.121 52.275501
-6.08706 -190.963 59.4146
-0.40779701 -193.625 49.591999
-5.36376 -218.76401 49.816399
-19.944901 -234.742 46.2826
-25.6649 -239.07201 52.087101
0.39461899 -219.849 45.7006
-18.397301 -201.886 58.959099
-23.111601 -205.506 48.337502
-19.533001 -219.56599 59.226002
-21.8169 -168.625 49.345699
0.68807799 -182.38 46.009399
2.1410899 -189.504 45.849602
-18.254299 -199.52699 59.201199
-24.389601 -206.325 48.285999
0.61260402 -197.936 46.567001
-3.70894 -196.98399 53.506001
-18.9578 -174.09 52.922798
-22.9083 -239.146 50.802399
-19.9506 -176.91 52.803699
0.31347299 -229.573 44.0881
-2.82181 -172.411 53.617901
-20.599701 -194.75301 52.062698
-6.5423498 -194.869 59.454102
-22.843599 -238.278 50.370098
-9.2182598 -242.078 53.5718
-18.465401 -203.114 59.052399
-8.9310198 -237.32001 59.196201
-27.133499 -239.04601 47.970402
-4.9491701 -176.91299 59.013699
0.0217609 -231.063 51.157501
-24.327499 -215.84801 43.3904
-8.7098598 -234.953 60.013199
1.3776799 -219.90401 45.744598
-18.0665 -191.481 58.700802
-3.01948 -186.78799 53.680199
-22.819401 -187.55099 45.7579
-1.98722 -198.108 49.3801
-4.45436 -214.66499 49.831402
-27.4485 -226.189 50.1684
-20.8137 -199.505 52.127602
0.147212 -166.98599 50.444801
-21.5014 -205.718 52.117901
-20.944799 -219.92 57.6908
-19.2295 -181.711 56.285301
-16.141199 -164.405 46.101398
-8.7794399 -233.20399 59.953201
-20.7621 -180.632 43.296398
-6.1408601 -193.86301 58.962002
-4.6817298 -199.73 43.842098
-17.442301 -232.06 44.050598
-6.4607902 -212.245 41.977402
-23.535999 -201.259 43.538898
-0.162846 -188.27699 50.420502
-5.8318501 -184.71001 59.039799
-27.065599 -235.828 48.806
-4.7518301 -217.72301 49.8241
-17.2705 -171.463 58.522499
-7.2920499 -199.44701 59.073898
-3.0513 -187.562 50.4193
-23.500099 -235.80299 44.4361
-8.4788504 -234.446 59.855499
-7.5776901 -204.092 59.052299
-4.8291602 -167.492 53.663898
-1.20778 -198.827 45.367401
-19.2817 -169.33 52.903599
-1.4746799 -231.265 54.395
-3.47821 -190.14999 46.782501
-18.0357 -207.181 41.591702
0.34852299 -220.467 44.108898
-25.2775 -238.536 47.933601
2.94541 -184.88699 50.2285
0.35946399 -231.002 49.555599
-4.9491901 -167.847 54.610401
-27.5485 -226.05499 50.826302
-19.2621 -180.59801 45.329498
-19.3675 -218.189 59.061298
-4.4902401 -174.967 41.233799
-25.452999 -206.51199 43.468498
-26.9515 -226.069 53.2458
-24.150499 -195.935 48.892399
-21.564501 -169.599 48.323502
-4.0446401 -196.18401 43.587799
0.83931798 -190.595 45.7435
-7.6794701 -205.10001 59.149601
-16.8437 -168.138 56.1423
-25.742201 -238.30701 47.9324
-18.2286 -192.903 42.0644
-25.011 -173.60001 43.691399
-27.8757 -226.08701 49.440701
-17.6672 -177.748 58.119301
-18.659599 -205.26401 59.195202
-16.909599 -231.396 44.092899
-19.914101 -234.70599 48.888699
-26.553801 -205.821 44.157001
-20.465599 -210.77299 49.346199
-7.8920002 -216.177 59.249298
-8.7499304 -237.884 48.708801
-21.9949 -208.841 52.083099
-4.8161001 -163.005 43.321701
-18.0333 -192.673 58.857899
-18.0107 -194.63 58.825802
-0.77989 -194.718 50.3731
-4.22405 -192.871 53.541401
-0.99167198 -231.32401 53.393398
-21.309999 -237.45 49.185902
-24.4506 -215.948 44.758301
-5.5598402 -178.282 58.6394
-26.3062 -226.034 53.967098
-5.4417801 -204.11 50.916401
-27.142799 -204.96899 43.232201
0.35567701 -179.55 47.132702
-19.005199 -210.83299 59.195
-3.26278 -213.582 46.8978
-16.8752 -170.703 57.928799
-21.461901 -201.186 52.1222
-12.4837 -163.217 42.807499
-23.1887 -237.02699 46.6661
-19.3473 -174.146 45.228901
-2.87798 -174.601 48.557701
-4.22193 -166.73399 51.847099
-26.257401 -238.701 51.986801
-5.9879699 -187.489 59.5163
-19.9268 -234.513 53.7537
-12.837 -231.64999 44.087799
-8.7531404 -238.065 49.16
-21.0567 -194.32401 52.165901
-21.393299 -197.90199 52.116199
-7.6444802 -222.30099 53.351501
-0.46445301 -192.366 50.159401
-16.260099 -163.966 45.9464
-0.129069 -188.914 49.560001
-0.31333899 -190.17999 50.258499
-11.3725 -163.177 42.927502
-4.7569299 -176.065 41.625198
-21.3967 -176.039 49.591
-5.2379198 -207.463 54.257702
-8.5788498 -235.76801 46.446899
-7.5037298 -162.99001 43.016102
2.6414199 -176.50101 46.543598
-19.9939 -234.3 53.3312
-21.344999 -174.408 42.880402
-9.2703199 -242.411 54.5872
-2.0699699 -166.71201 50.405701
-6.00492 -186.217 58.984901
2.7167201 -176.117 44.738098
-2.8250899 -173.62601 53.717999
-21.739599 -217.213 43.705898
-3.4868 -186.562 53.715801
-5.6873999 -180.19501 59.162102
0.42567101 -219.739 44.556301
-11.9309 -163.189 42.862
-22.292299 -173.83501 44.756302
-8.2476902 -238.851 50.1884
-16.5881 -168.306 56.533699
-19.1478 -169.707 47.684799
-25.3332 -198.631 48.860802
-19.9398 -234.78999 47.771801
-8.0117598 -209.63 58.2911
-18.451799 -169.59801 52.2981
-16.381701 -166.46001 50.386002
2.6317201 -176.994 46.111801
-21.222601 -200.74001 52.0947
-22.591 -208.673 44.4119
-8.5436497 -235.211 45.642899
-22.0763 -173.569 42.874199
-3.88112 -196.996 44.6436
-6.1385698 -184.40401 59.255798
-20.3647 -173.922 45.801601
-6.7132602 -236.532 49.350498
-3.2874899 -214.036 46.329899
-4.1409898 -213.34599 47.101799
-6.1051998 -185.429 58.998901
2.5673699 -184.948 44.405701
-17.1661 -178.388 57.739899
-3.3351901 -215.02299 45.815498
-5.86236 -218.42999 53.0266
-21.854601 -237.659 49.457802
0.73280901 -197.664 45.446499
-21.948 -193.983 48.994598
0.84394801 -194.69099 46.364498
-0.0481629 -176.14301 49.752998
-23.028601 -200.916 48.9464
-17.615601 -176.422 58.4935
-22.107599 -213.724 49.2915
0.040693801 -190.379 45.2057
-24.4669 -213.26401 43.912399
-19.0935 -182.30901 45.047901
-0.622482 -171.04201 49.509499
-16.709801 -167.724 54.948601
0.27801999 -217.18401 45.028599
-3.0608201 -219.2 49.9249
-22.3694 -224.722 57.852001
-4.9215999 -213.586 45.5919
-25.1567 -173.621 45.138802
-23.638201 -236.19701 45.000301
0.71301001 -228.737 45.6283
-17.673201 -180.446 57.955399
-16.747601 -166.37801 51.394798
-5.2965999 -208.56 54.316399
-24.868401 -215.909 44.362301
-28.8757 -232.44901 44.1973
-24.388 -186.32201 45.0275
-8.6315298 -241.211 56.7738
-22.639099 -177.59599 42.741199
-21.1047 -223.468 58.314201
-8.6302299 -163.334 43.039299
-16.602699 -166.894 52.6688
-8.8792696 -237.842 59.298698
-14.0361 -228.549 47.739498
-3.3266799 -213.37601 46.317299
-4.3793502 -215.50101 48.654999
3.2464099 -185.09399 44.3727
-0.56292301 -194.403 49.538799
-21.781601 -199.92799 52.086601
0.951159 -197.681 44.7892
-2.7242801 -186.187 45.434898
-17.2104 -175.51199 57.8517
0.91502798 -220.634 46.2869
-22.2045 -173.22099 44.0676
-7.2676702 -215.095 59.0522
-21.571501 -177.847 42.779099
-19.8867 -234.765 48.256699
-19.7358 -174.00301 45.7906
-20.1362 -172.545 43.694099
-0.044976201 -186.26401 49.280201
-2.56478 -216.535 45.306499
-17.3085 -172.933 58.086102
-3.2781799 -174.713 41.6679
-17.7528 -190.87801 42.043301
-2.7532101 -166.33099 50.388901
1.9283201 -172.017 45.534302
-22.822201 -205.215 49.1446
-4.1335602 -179.625 56.219002
-21.2244 -220.74899 48.805401
-17.423 -213.69701 42.131599
-2.40644 -198.084 49.143799
-2.5190799 -185.369 44.433701
-24.1684 -182.968 48.550499
-6.02001 -183.91901 59.213501
-26.768999 -235.411 48.8232
-5.4445901 -175.51601 59.143002
3.1017699 -180.339 44.380699
3.2279601 -171.72501 45.492199
2.31618 -185.388 49.661999
-4.2974501 -195.297 53.451801
-24.9953 -215.879 43.699299
-21.104099 -181.36 44.041401
-22.857201 -225.278 57.621201
-20.288601 -183.619 52.712898
-2.67558 -215.58299 49.171398
-23.6001 -238.09801 50.545601
-21.931101 -180.459 44.8284
-4.74684 -201.707 54.234901
-19.554199 -220.92999 58.902901
-21.5147 -201.72099 52.120998
-3.27597 -168.828 53.614799
-2.71752 -170.244 53.6646
-0.786264 -195.14999 46.347599
-9.0023403 -239.312 58.380699
-2.5708499 -190.20599 46.679501
-19.318199 -217.19501 58.725101
-20.695999 -175.911 49.512798
-13.5869 -231.367 44.094501
0.221559 -183.631 45.885601
-17.9114 -183.57001 58.123299
-19.481501 -218.86301 59.2043
-24.4981 -198.175 48.793598
-17.706699 -193.867 42.0425
-28.5224 -236.23599 46.8904
-12.9145 -231.16901 44.085899
-22.476601 -200.536 48.387402
-21.223 -196.53999 45.713799
-2.8305199 -190.181 45.9431
0.36464101 -179.72 49.638699
-23.246599 -207.33099 48.473
-20.2395 -192.211 52.117199
-20.429701 -197.498 52.1339
-3.27492 -215.76199 49.177299
-21.626301 -176.274 48.467098
-22.0156 -207.711 48.7761
-23.2323 -206.60699 48.9076
-25.7941 -214.81 43.958302
-20.3503 -176.731 47.982399
-4.9032602 -218.935 49.828899
-25.446899 -179.224 49.7248
-6.5219498 -169.668 42.5653
-19.2236 -174.04401 44.0345
-18.805201 -192.18201 58.721298
-22.1576 -179.867 43.290298
-1.75697 -207.718 45.437099
-24.221701 -183.83701 45.070999
-4.4816499 -192.353 53.489399
0.925062 -194.772 45.882702
-3.5234201 -187.19099 50.435501
-19.243799 -170.519 52.923199
-1.1488301 -198.311 44.713001
-3.7463901 -197.47701 53.538502
-22.446301 -172.41701 49.0387
-24.3771 -240.618 51.693501
0.78259301 -195.78999 46.564301
-27.390499 -235.36301 49.174
-16.2761 -165.16499 48.324799
-22.672001 -188.36501 44.784401
-4.0123801 -192.162 53.5061
-19.5431 -180.60201 44.585999
-24.883499 -169.00301 49.130501
-19.2139 -233.297 44.138699
-4.0938702 -182.40401 56.578201
-4.3559799 -217.05701 49.847801
-19.521999 -234.91701 52.9869
-5.5816598 -178.054 59.068001
-8.42624 -222.15601 59.621799
-19.635401 -233.52499 44.181301
-5.9756899 -236.61099 50.007301
0.72575998 -231.08501 46.535702
-22.9419 -229.01401 46.483898
-8.9592896 -234.05 59.937
-28.4755 -235.674 44.479698
-20.760599 -197.12399 52.0173
-2.42396 -196.144 45.103901
-0.288219 -166.774 50.4618
-8.8533096 -237.40199 48.360901
-21.2791 -207.76601 47.9272
-22.243601 -168.91499 49.317501
-25.696699 -238.79201 47.946899
0.65903401 -171.729 45.5695
0.687989 -231.043 47.816502
-27.646099 -226.19501 52.1642
1.70439 -183.839 44.371399
-0.94642597 -169.065 50.4594
-3.1867299 -171.677 53.649101
-5.2841301 -173.05 58.884602
-24.5683 -217.586 45.773499
-20.3442 -175.588 49.5569
-28.8403 -234.02699 44.213299
-22.158001 -224.877 58.264301
-22.931499 -193.784 48.269901
-16.9702 -231.88499 44.072399
-8.7618799 -233.045 59.4809
-25.869699 -215.259 44.104599
-23.306801 -201.06599 48.452202
0.0262661 -169.347 50.495499
-0.11415 -231.075 51.6796
-20.152 -174.015 44.005699
0.245005 -166.175 50.5173
-21.2162 -200.034 51.769299
-22.019501 -179.541 48.849998
-4.1764202 -196.771 53.5387
0.732849 -222.14301 44.2491
-6.9021401 -215.573 41.538502
-19.656601 -167.39 52.859901
-18.667101 -232.603 44.063702
-6.1041298 -183.22501 59.456699
-15.869 -162.714 43.1716
-19.431101 -197.55701 58.554298
-19.030701 -182.192 45.507198
-8.72085 -235.88699 60.027401
-24.5933 -223.16901 52.201099
-17.8731 -231.826 44.029202
-16.628401 -167.214 53.529999
0.70690399 -231.07001 47.237202
-26.8018 -226.034 53.943501
-20.8529 -234.22701 44.309502
-0.28960899 -213.42799 47.130402
-21.211399 -213.76601 52.141201
-0.78772002 -168.481 50.438
-27.062799 -204.328 43.4576
-2.5950401 -220.425 49.759998
-28.778601 -226.058 48.286201
-17.852301 -193.463 41.785301
-19.654499 -174.32401 52.500702
-25.348801 -199.23399 48.802601
-1.93054 -197.81799 50.267101
-23.1159 -224.375 57.270302
-21.1952 -220.27499 52.1465
-7.6347098 -222.34 54.041801
