# .PCD v0.7 - Point Cloud Data file format
VERSION 0.7
FIELDS x y z
SIZE 4 4 4
TYPE F F F
COUNT 1 1 1
WIDTH 375
HEIGHT 1
VIEWPOINT 0 0 0 1 0 0 0
POINTS 375
DATA ascii
1.37077 -185.689 44.472
-0.121792 -183.636 44.945
-5.3122201 -169.713 43.394402
-5.4176202 -215.97501 45.489201
-4.9654799 -174.21001 42.0135
-4.84273 -176.017 42.158901
-1.7128299 -186.205 45.220699
-4.9995999 -196.99699 44.864601
-0.38587099 -187.465 45.521999
-2.53737 -231.892 44.275101
-0.104014 -220.36099 44.3783
-1.52616 -231.82401 44.2719
-4.9953299 -169.42999 42.978001
-4.4204402 -165.677 42.664299
-4.6613998 -216.905 45.138199
0.43409199 -221.258 44.2029
0.77427 -227.74001 44.0504
0.017952001 -187.689 45.318501
-2.49383 -218.485 44.481701
0.38523 -186.179 45.056099
-5.3098402 -170.33501 43.426102
-4.9541998 -172.006 43.089199
-5.3835902 -194.814 44.9006
-0.61727202 -185.507 44.266499
0.272466 -221.985 44.191601
-3.6362801 -217.90601 44.7561
-5.2919002 -163.375 43.276299
1.23005 -186.67101 44.945499
-4.6416798 -194.196 44.822102
-5.1398301 -217.02901 44.935902
-0.286378 -190.36099 45.9016
-5.2880802 -163.85201 43.276402
-3.8754799 -173.162 42.724602
-0.725784 -190.37199 46.227299
-4.4717102 -195.48801 45.007
-4.7678699 -172.569 42.720001
-4.19135 -175.85001 44.3736
-4.0149298 -193.681 45.220798
-0.23744699 -224.33501 43.840698
-4.7129998 -217.408 44.8559
-4.6093798 -166.416 42.772499
-3.11624 -218.686 44.783699
0.180186 -185.532 44.2728
0.86070901 -185.64799 44.190701
-3.18784 -218.69501 44.306599
-0.064557098 -231.489 44.515999
-4.5550699 -193.67 45.350899
-3.10885 -175.89101 44.336498
-5.3181701 -172.03101 43.427601
0.51738203 -177.10001 44.571301
-4.8251801 -174.892 41.786701
-4.9047999 -215.00999 44.992001
-1.51551 -185.48199 44.5159
-0.436436 -190.36 45.426601
0.90777999 -180.02 44.430199
-0.15579499 -186.041 45.0284
-1.64405 -183.17101 44.775902
-3.17769 -217.907 44.344898
-4.20786 -189.86 45.907799
-5.2527399 -188.968 45.9063
2.0042601 -180.02901 44.3578
-4.82266 -196.35699 44.804901
-4.6995001 -165.02699 43.3727
-4.7717099 -175.561 41.965599
-4.6665301 -163.57899 43.319
-3.6299901 -185.36301 44.918999
-4.6845498 -184.80499 44.653301
-4.3861799 -218.47099 45.169399
-4.6964402 -171.548 43.5411
-1.23528 -186.103 45.126499
-0.179988 -224.26401 44.466202
-1.09313 -185.507 44.746899
-0.430774 -185.57001 44.7715
1.36841 -184.439 44.341099
-0.329229 -222.24699 44.147499
-4.7009902 -197.46001 44.800098
-4.9238801 -170.04401 43.140099
-4.1792898 -194.037 44.744301
-4.8533902 -170.994 43.482101
0.24391 -190.50999 46.134899
-4.14183 -172.80701 42.9226
-1.37477 -183.56799 44.861401
0.71092701 -221.14 44.606499
-4.11974 -185.241 44.561001
-5.22857 -186.522 44.878502
-0.229187 -230.77699 44.047501
-4.0599999 -194.258 45.228001
-2.5275099 -217.85699 44.382801
0.298448 -176.41 44.184898
-2.01157 -231.873 44.4277
-5.3007398 -196.409 44.995098
-4.4195499 -219.632 44.531101
-4.5957398 -215.002 45.576099
-2.8292899 -183.478 44.946602
-0.18604501 -231.34 44.070999
-4.7801099 -164.19299 43.333199
-2.6136301 -185.362 44.951401
-0.73329699 -188.536 45.577
-5.4205799 -171.009 43.415501
-0.651546 -187.004 45.4403
-1.1253099 -187.008 45.546398
-0.45946699 -188.09399 45.287498
0.61096102 -176.327 44.583698
-3.88362 -218.64101 44.3633
0.0196629 -220.929 44.178001
-4.47788 -172.88 41.765202
-0.65917498 -188.55 45.0327
-4.42134 -166.769 43.072701
-0.67261899 -183.634 44.667301
0.81500101 -186.491 45.145401
-4.4870801 -174.541 41.740101
-4.5465002 -186.47 46.1861
-5.1902299 -215.02499 45.473301
-5.1004 -187.392 45.520401
-0.74630499 -231.138 44.0937
-2.5309801 -183.07899 44.974499
-5.2521501 -171.554 43.456799
-1.36367 -231.30299 44.215
-1.64343 -182.60201 44.9561
-0.106506 -189.25 45.080002
-5.1498799 -173.67101 42.122299
0.076111801 -185.591 44.7892
-4.4345398 -197.133 45.049702
-4.55302 -167.875 43.077702
-2.33623 -176.078 44.1675
-0.24655899 -176.452 44.256001
-4.4390202 -194.95 44.775902
-5.27951 -189.728 45.786201
-4.7678499 -168.634 43.404598
0.047737099 -221.24899 44.625401
-1.35102 -190.295 45.798401
0.592574 -185.60001 44.6595
-4.4941602 -168.88699 43.895
-4.4105101 -196.02499 44.987801
-0.55872601 -189.173 45.311699
-1.64468 -182.14 45.0877
-0.49456099 -230.37 44.0219
-5.3425498 -200.38699 43.711899
-1.87745 -175.918 44.3811
-4.7443399 -194.63699 44.988602
-4.6217599 -169.31 43.433998
-4.9556699 -189.483 45.458401
-0.96632802 -231.614 44.343201
-4.4338398 -217.79401 44.769901
-4.8719301 -195.196 45.0201
-0.19243 -187.269 45.091499
-0.27568901 -176.157 44.7201
-4.43397 -196.674 44.7234
-4.8607402 -167.24899 43.427601
-0.16332 -221.673 44.198399
1.28136 -179.593 44.274799
-4.7709599 -170.44901 43.433899
-0.019392001 -229.912 44.142502
0.32184899 -225.063 43.9916
-4.5684099 -174.004 41.798
-2.2063 -186.19501 45.203098
-4.4409699 -166.99699 43.574501
-3.87327 -217.257 44.9958
-3.7307701 -195.88 44.861801
-5.1908002 -194.045 44.8825
-2.0267301 -185.48 44.797001
-4.7506299 -173.271 41.8447
-4.9503498 -173.938 41.508099
-4.48035 -167.674 43.5065
-4.7738199 -166.504 43.407299
-0.57361197 -188.985 45.753101
1.1642801 -180.202 44.8783
-4.2305899 -163.793 43.683102
-4.4542999 -189.427 45.507
-4.3302798 -175.069 41.807701
-4.3150301 -164.735 43.402199
1.7771699 -179.60699 44.439899
-4.2688098 -164.189 43.4077
-5.0802202 -169.131 43.437199
-4.6538401 -193.72 44.7458
-17.1064 -183.45799 43.311901
-20.7491 -233.75999 44.276199
-16.861 -171.092 44.439201
-16.9687 -181.94 42.749199
-20.575199 -201.409 43.431801
-17.279699 -173.49001 44.382
-18.565399 -197.16 45.074501
-16.988501 -171.795 44.432999
-15.9243 -204.93201 43.838501
-17.451799 -191.80099 42.190899
-17.4377 -186.103 44.982101
-17.453899 -184.379 44.896301
-19.6049 -232.687 44.1106
-16.906799 -168.90601 44.376099
-18.352501 -194.883 45.406601
-17.847601 -192.29201 42.09
-15.6587 -162.97301 42.819901
-17.4557 -188.696 44.019699
-16.8139 -173.209 44.431999
-17.832199 -193.20599 42.193501
-18.6201 -181.006 44.472401
-17.8251 -194.36099 44.899101
-18.3458 -194.619 44.996799
-17.261499 -183.903 43.240398
-17.6259 -181.98199 44.922401
-16.927099 -169.38 44.469398
-18.5748 -196.94099 44.634399
-16.9554 -168.886 44.874599
-13.5734 -163.18401 42.702599
-18.520901 -197.668 44.950901
-18.6966 -174.073 44.424301
-17.104099 -169.85699 44.384499
-14.6383 -163.129 42.7612
-17.100201 -183.705 43.743198
-16.213499 -163.66 43.2896
-21.0238 -211.79401 43.874802
-17.331699 -183.776 44.981201
-16.462099 -168.584 44.803001
-18.1199 -173.95799 44.2272
-17.492701 -190.71001 42.4426
-16.9765 -182.408 42.862499
-17.454599 -181.15601 44.712299
-20.2111 -233.01801 44.134201
-17.036301 -182.53999 43.797298
-17.0089 -182.955 42.836399
-16.627701 -169.269 44.8382
-17.8508 -186.412 45.0457
-16.089701 -163.26801 42.781898
-28.542101 -234.43201 44.296501
-22.979401 -184.095 45.512001
-23.9722 -235.98399 46.0979
-22.986799 -183.44701 44.9095
-28.0776 -235.996 44.436798
-22.3584 -182.57001 44.412102
-26.577299 -221.536 44.0779
-28.061399 -226.716 43.556999
-22.6716 -182.058 44.220299
-28.5739 -226.985 43.5014
-28.5742 -227.633 43.917999
-24.4606 -202.33299 43.349499
-22.363899 -181.453 44.375301
-25.193399 -203.45599 43.2967
-21.679001 -181.672 44.130798
-23.430201 -214.095 43.3964
-24.7358 -214.38901 43.316799
-25.743 -235.90601 44.834202
-28.4622 -230.60899 43.630798
-25.6929 -220.26199 44.515099
-26.1443 -205.409 43.271301
-25.3965 -236.024 45.880402
-25.5406 -203.028 43.216801
-22.798201 -218.79201 44.4729
-22.5508 -180.99899 44.132198
-28.605 -231.467 43.741798
-28.371201 -235.20599 44.437698
-24.042801 -201.76401 43.238098
-25.8449 -219.83299 44.251801
-22.074699 -234.67599 44.336899
-22.5051 -183.847 45.0154
-27.008101 -220.513 44.465599
-25.123501 -219.30299 43.867599
-28.365601 -231.07201 43.906799
-22.9589 -215.32899 43.458698
-24.898899 -206.42999 43.394699
-22.367701 -183.36 44.356098
-22.8384 -183.23599 44.444801
-27.9636 -235.504 44.4077
-25.8515 -219.17101 44.402199
-27.3577 -235.623 44.442902
-24.701799 -215.453 43.518902
-22.069799 -210.80901 43.8452
-21.6998 -234.23 44.307499
-23.193199 -215.866 43.769798
-25.723499 -204.72099 43.269901
-22.3561 -181.565 43.869598
-27.9203 -226.23801 43.578899
-24.1658 -215.31 43.378399
-23.3494 -181.948 44.5047
-25.1859 -205.20399 43.310799
-23.9884 -215.967 43.8545
-21.149599 -211.282 43.508801
-21.928301 -201.351 43.4226
-24.197599 -214.267 43.417999
-22.746401 -182.54201 44.028702
-23.633499 -214.556 43.4259
-25.582701 -205.834 43.340599
-24.114401 -235.786 44.441898
-27.402 -236.205 44.382599
-21.0889 -210.258 43.894699
-25.2379 -201.97 43.659901
-22.325001 -180.657 44.418999
-25.35 -219.263 44.330502
-24.3925 -206.56599 43.445499
-22.4995 -234.91299 44.355
-24.8148 -214.855 43.515701
-23.4531 -215.519 43.465302
-23.011101 -235.205 44.382702
-22.996901 -214.789 43.4529
-25.986601 -204.314 43.244202
-24.200701 -214.795 43.397301
-22.648899 -208.05 44.195599
-24.5534 -201.80901 43.204399
-21.991699 -216.515 44.3839
-22.9702 -213.92999 43.469898
-22.237 -218.229 44.096802
-21.236601 -201.364 43.5835
-21.7034 -213.21201 43.518101
-24.207199 -201.47501 43.589401
-23.4473 -215.013 43.425598
-22.0481 -181.121 44.202499
-22.370001 -201.45599 43.626801
-7.1072898 -215.117 42.411098
-6.96035 -215.02299 41.7603
-7.1392002 -169.02699 43.577599
-7.5996599 -205.289 43.834301
-7.1796799 -213.47 42.782501
-7.0055299 -209.748 44.123402
-6.8242998 -213.862 42.227402
-8.6008301 -233.97 44.3461
-7.14013 -211.96201 44.0256
-5.6919098 -201.467 43.840698
-6.3088498 -214.66701 41.873501
-7.33042 -214.21201 42.1884
-11.843 -231.33099 44.0331
-6.95962 -209.255 44.298302
-7.0980101 -207.715 43.304199
-5.94239 -171.534 43.349899
-8.4422598 -234.116 45.294899
-7.2059398 -206.48599 43.8783
-6.8552699 -214.49699 42.216599
-8.9650698 -196.548 43.9245
-8.4998798 -234.711 45.561699
-6.5950098 -214.18401 41.6679
-5.7008801 -199.354 43.781399
-6.1940699 -221.144 44.9594
-5.5142899 -168.8 44.5518
-7.5389199 -213.05901 42.847801
-7.4296799 -205.94701 43.837002
-7.2744799 -204.616 43.8456
-8.7536697 -233.513 44.240799
-6.2137098 -196.866 43.910198
-6.59234 -203.67101 43.8964
-6.6830401 -203.203 43.8853
-7.05197 -196.978 43.6917
-5.7012 -167.925 44.430099
-5.7059102 -173.627 42.730801
-6.5630698 -214.908 42.212002
-7.6103501 -204.22 43.815498
-8.5548401 -235.21001 46.327999
-8.4405699 -233.97 44.831501
-7.0537701 -210.86 44.009102
-10.3406 -218.539 44.429001
-7.52349 -212.43201 43.953899
-6.4510398 -196.479 43.735199
-5.8341899 -168.384 44.435902
-7.72577 -173.392 43.5247
-7.0883598 -207.048 43.318001
-6.9331298 -203.948 43.3433
-7.0181899 -206.65199 42.9953
-7.1092901 -168.2 43.548901
-6.95926 -208.01199 44.116001
-7.6840401 -213.00101 43.949902
-6.9872799 -174.358 42.972599
-7.3983898 -214.673 42.304001
-9.2405901 -233.46201 44.222599
-9.9887304 -232.446 44.114601
-7.1713099 -203.677 43.841099
-6.0275302 -163.327 43.176701
-6.9735198 -212.976 42.387299
-5.5900302 -200.927 43.815102
-5.7607198 -174.10201 42.943802
-6.0956802 -220.224 44.9478
-6.9345698 -213.118 41.868301
-7.2260799 -213.55299 42.202702
-8.6653204 -214.757 43.9697
-6.2680302 -167.95599 44.417801
-7.3912101 -213.302 43.231201
-6.3596101 -196.058 44.011799
-7.1268101 -211.332 43.981998
-6.1069999 -194.14301 43.746201
