# .PCD v0.7 - Point Cloud Data file format
VERSION 0.7
FIELDS x y z
SIZE 4 4 4
TYPE F F F
COUNT 1 1 1
WIDTH 491
HEIGHT 1
VIEWPOINT 0 0 0 1 0 0 0
POINTS 491
DATA ascii
-24.924601 -235.05499 44.234501
-28.542101 -234.43201 44.296501
-22.979401 -184.095 45.512001
-22.4254 -205.855 43.8167
-21.775101 -229.73 44.0434
-26.947001 -232.49899 43.447498
-27.249901 -227.825 44.021301
-22.470301 -219.519 44.204899
-23.9722 -235.98399 46.0979
-25.937799 -225.786 43.9006
-27.5762 -233.202 43.660999
-28.0068 -232.535 43.717899
-21.297001 -219.479 44.254002
-25.635799 -232.10001 43.499901
-27.063 -233.817 43.575298
-24.981701 -220.118 44.088501
-21.592899 -204.791 43.4757
-22.986799 -183.44701 44.9095
-26.6689 -229.61501 43.867901
-23.2661 -219.05099 44.190601
-21.2847 -225.037 43.744999
-26.816 -230.756 43.479301
-22.126801 -224.147 43.866901
-28.0776 -235.996 44.436798
-23.3536 -201.851 43.683601
-21.616699 -206.12199 43.4519
-23.3577 -202.961 43.308701
-22.3584 -182.57001 44.412102
-21.048901 -222.36301 44.2085
-23.427601 -228.26199 43.519798
-25.194799 -225.037 43.635799
-26.181 -231.32001 43.879101
-26.2579 -233.31799 43.586201
-23.326599 -203.672 43.418999
-22.853901 -202.629 43.3988
-22.4112 -220.646 43.872398
-25.7365 -220.94 44.566399
-25.220699 -232.539 43.864101
-25.498501 -233.37 43.879799
-21.2941 -232.78799 43.9869
-24.6467 -222.918 43.658901
-26.577299 -221.536 44.0779
-22.8347 -227.259 43.8689
-24.8195 -224.32001 43.798599
-21.049601 -230.765 43.917198
-28.129601 -228.658 43.903702
-28.061399 -226.716 43.556999
-24.5672 -228.562 43.518299
-27.930401 -231.737 43.895
-26.1863 -235.84399 44.268501
-23.7945 -205.379 43.305099
-28.2164 -228.017 43.514999
-21.8808 -216.073 43.8064
-22.421301 -234.33099 44.288101
-22.9233 -231.707 43.701599
-25.432301 -231.36 43.823002
-27.725599 -231.103 43.408401
-25.739 -220.707 44.1049
-24.089001 -224.13901 43.651199
-24.063801 -226.235 43.9035
-22.6716 -182.058 44.220299
-21.745899 -222.86 43.8139
-26.094801 -229.48801 43.442001
-24.5448 -227.056 43.707199
-27.3575 -232.31799 43.879299
-22.9431 -234.647 44.311401
-23.4589 -231.22 43.901798
-28.5739 -226.985 43.5014
-21.3421 -222.851 44.175098
-28.4217 -232.267 43.940701
-27.393999 -228.11501 43.550598
-25.902901 -224.70399 43.639702
-24.093201 -223.011 43.760799
-21.8258 -226.54401 43.699799
-28.5742 -227.633 43.917999
-23.5415 -226.508 43.846699
-25.813601 -228.77299 43.871498
-25.183901 -233.914 43.847401
-26.108999 -228.021 43.641602
-24.541901 -233.105 43.764702
-21.845501 -213.60899 43.7742
-21.474701 -204.455 43.839001
-21.2826 -227.826 43.911499
-22.691799 -223.87601 43.887299
-23.902399 -233.526 43.894299
-24.8941 -231.32899 43.904499
-23.542299 -227.96001 44.045898
-23.428101 -231.87801 43.891602
-22.9303 -221.27901 43.8218
-22.5047 -201.952 43.784302
-21.820499 -221.075 43.872601
-24.4606 -202.33299 43.349499
-22.363899 -181.453 44.375301
-21.849701 -215.55901 43.482101
-23.423201 -233.229 43.875
-27.188601 -226.901 43.6679
-26.1007 -233.67101 43.8717
-27.4669 -231.86099 43.4519
-22.938299 -201.84 43.301601
-22.4249 -233.60201 44.271599
-21.311899 -223.34801 43.906101
-21.121799 -203.2 43.842201
-23.491699 -205.83299 43.805401
-28.044701 -229.19299 43.490799
-25.062599 -226.647 43.719501
-22.9485 -225.25101 43.9632
-21.431299 -206.85699 43.8125
-28.133801 -234.729 44.183201
-25.193399 -203.45599 43.2967
-28.033001 -233.79401 43.877701
-25.115999 -231.77699 43.503502
-23.4259 -204.589 43.376301
-24.7729 -203.517 43.7295
-26.596201 -233.541 43.888199
-24.504101 -204.967 43.312
-21.679001 -181.672 44.130798
-21.4258 -220.567 43.877102
-23.430201 -214.095 43.3964
-21.927601 -203.175 43.374699
-24.7358 -214.38901 43.316799
-22.246799 -223.491 44.1157
-25.743 -235.90601 44.834202
-24.0079 -228.283 43.648701
-22.3409 -202.543 43.380199
-21.883699 -227.05 43.852501
-26.762199 -235.808 44.2052
-24.366699 -234.097 44.4282
-25.1129 -235.573 44.311401
-26.3666 -235.207 44.404598
-24.002701 -205.899 43.7738
-28.000299 -227.589 43.773602
-24.193899 -223.483 43.941502
-22.100599 -204.51601 43.413601
-22.5725 -230.21201 43.505402
-27.430599 -227.547 43.531101
-21.3232 -214.101 43.549599
-27.036301 -234.308 43.804901
-25.525101 -235.20799 44.4095
-26.212799 -232.034 43.447701
-22.3832 -227.36301 44.101898
-28.4622 -230.60899 43.630798
-21.0889 -228.67101 43.870899
-23.4958 -221.65401 43.765202
-24.703899 -232.556 43.805099
-24.607201 -219.604 43.8825
-24.6059 -221.936 43.8223
-21.322701 -219.90601 43.966202
-24.93 -221.381 43.830502
-21.414 -201.97301 43.794899
-25.6929 -220.26199 44.515099
-27.882799 -230.19 43.8078
-23.8477 -230.742 43.523102
-24.620501 -231.47099 43.510101
-22.1632 -219.862 43.752102
-26.1443 -205.409 43.271301
-25.3965 -236.024 45.880402
-23.4494 -232.444 43.7738
-25.5406 -203.028 43.216801
-22.224701 -222.72 43.7551
-22.798201 -218.79201 44.4729
-22.5508 -180.99899 44.132198
-24.616699 -222.362 44.1068
-22.6173 -207.39101 44.1492
-23.360001 -224.492 43.887699
-23.6987 -227.104 43.9296
-28.605 -231.467 43.741798
-28.371201 -235.20599 44.437698
-26.945499 -226.343 43.6413
-23.386299 -223.47301 44.0019
-22.4105 -226.506 43.715099
-24.7076 -225.74699 43.8979
-24.8543 -228.211 43.736401
-23.411301 -220.653 43.878201
-24.042801 -201.76401 43.238098
-22.9778 -226.61 43.847698
-25.151199 -222.543 44.056702
-22.866899 -221.75999 43.7915
-25.2089 -221.187 44.171398
-25.8449 -219.83299 44.251801
-22.074699 -234.67599 44.336899
-21.1443 -218.98399 43.986301
-22.5051 -183.847 45.0154
-27.2297 -231.30099 43.3965
-22.0277 -222.25101 43.770302
-21.9154 -218.38699 44.454399
-25.1696 -223.032 44.1021
-27.008101 -220.513 44.465599
-25.1903 -219.71899 44.310398
-25.208799 -225.961 43.901901
-21.8699 -220.267 43.9617
-25.123501 -219.30299 43.867599
-21.809999 -233.08501 43.992001
-25.121401 -221.774 44.355701
-28.365601 -231.07201 43.906799
-22.1607 -205.97 43.419498
-24.882099 -220.608 43.785599
-22.9589 -215.32899 43.458698
-27.000299 -228.674 43.583099
-25.178801 -234.481 44.243801
-25.490601 -221.817 44.0513
-21.8554 -225.013 43.764801
-21.910601 -214.752 43.532101
-25.4575 -229.09399 43.462299
-23.989599 -227.468 43.6656
-25.4877 -222.42999 44.467602
-21.353201 -219.355 43.759102
-24.8386 -225.245 43.876202
-23.830601 -202.576 43.296101
-25.993099 -226.869 43.678299
-24.2936 -204.27299 43.321098
-26.1668 -227.319 43.566502
-27.4793 -233.966 43.791801
-21.349899 -203.11099 43.413502
-24.898899 -206.42999 43.394699
-26.0485 -226.13699 43.530602
-22.4265 -203.54401 43.6693
-22.367701 -183.36 44.356098
-22.8384 -183.23599 44.444801
-21.2528 -224.278 43.782799
-27.9636 -235.504 44.4077
-23.565901 -225.907 43.825001
-21.7493 -228.106 43.601898
-22.2572 -229.67999 43.979599
-24.163401 -225.774 43.748501
-21.4361 -229.271 43.9683
-25.137199 -204.586 43.247799
-26.925501 -233.871 44.1749
-27.616199 -228.864 43.976299
-27.433399 -226.40401 43.682701
-22.4247 -230.811 44.069901
-23.687901 -234.28799 44.196701
-25.8515 -219.17101 44.402199
-22.4512 -231.972 43.819801
-24.1936 -226.743 43.9417
-21.893499 -203.72 43.4781
-21.268499 -219.01601 44.4627
-27.3577 -235.623 44.442902
-22.440599 -214.785 43.474701
-22.483299 -224.601 43.7146
-21.619801 -221.56599 43.852699
-25.228201 -223.855 44.177101
-24.614401 -226.22301 43.984699
-21.306499 -226.88 43.901501
-23.048 -206.46201 43.421902
-24.701799 -215.453 43.518902
-21.822901 -231.474 43.777599
-26.235901 -232.30701 43.8904
-25.1028 -219.914 43.632599
-24.999701 -227.23199 43.605499
-26.7848 -231.55901 43.409901
-24.066999 -219.472 43.895802
-21.4881 -230.946 44.0704
-26.152901 -225.25101 43.580101
-22.9981 -223.44901 43.6814
-21.2908 -221.15199 43.875599
-22.069799 -210.80901 43.8452
-24.295401 -203.51601 43.447498
-24.0266 -231.53101 43.566898
-21.6998 -234.23 44.307499
-24.196301 -235.239 44.401001
-23.193199 -215.866 43.769798
-25.120199 -220.627 44.201698
-25.4629 -226.916 43.648499
-25.723499 -204.72099 43.269901
-22.3561 -181.565 43.869598
-21.9342 -229.23801 43.967098
-21.729401 -229.726 43.5481
-23.507401 -222.32899 43.8372
-27.9203 -226.23801 43.578899
-24.103701 -230.317 43.9515
-27.3389 -231.53999 43.8088
-24.1658 -215.31 43.378399
-26.8766 -227.386 43.558899
-22.3552 -215.368 43.4655
-23.3494 -181.948 44.5047
-26.9083 -234.575 44.521702
-26.9589 -233.34 43.525299
-22.906401 -226.041 43.7477
-23.018299 -230.351 43.8685
-22.506201 -221.05901 44.190601
-24.750999 -233.55299 44.162201
-27.474501 -234.487 43.953499
-25.5457 -235.854 44.343601
-24.0686 -232.96899 43.886299
-26.1113 -232.972 43.915001
-22.273899 -228.13901 43.854
-25.534 -226.373 43.773102
-23.562 -235.218 44.3951
-23.963699 -204.722 43.3456
-24.1399 -232.55 44.150902
-26.648399 -228.149 43.944302
-22.9564 -232.37801 43.880001
-23.9457 -221.92799 43.853699
-23.834299 -234.755 44.367401
-21.3591 -230.30701 44.001999
-24.642 -231.96001 43.838902
-22.3244 -206.98599 43.856499
-22.616301 -205.118 43.389702
-22.3883 -232.623 43.892601
-21.2848 -231.569 43.827801
-21.931 -226.026 43.822399
-26.3304 -234.73 44.1394
-21.6929 -227.552 43.878899
-22.9489 -230.868 43.560799
-23.0485 -228.231 43.896702
-22.5975 -214.299 43.496601
-22.907801 -205.942 43.813499
-27.427799 -230.771 43.7127
-23.9184 -231.97099 43.865299
-26.308399 -230.201 43.7729
-21.4245 -218.55901 44.084202
-22.1689 -231.472 44.1297
-24.9235 -222.22099 43.602798
-21.8829 -230.338 44.004902
-23.5774 -233.795 44.311699
-21.9027 -214.159 43.667099
-24.840799 -230.76199 43.590199
-21.3267 -227.28999 43.657902
-22.3743 -231.37601 43.696899
-24.014799 -225.22 43.7617
-23.4774 -223.797 43.649799
-24.173 -205.66499 43.356098
-24.6908 -223.69901 43.820702
-21.834101 -230.96001 43.7393
-25.1859 -205.20399 43.310799
-28.544399 -233.129 43.994598
-26.5452 -226.03101 43.660599
-23.9884 -215.967 43.8545
-22.576599 -228.438 43.570099
-22.9006 -220.617 43.788799
-21.6759 -229.125 43.571999
-22.472799 -230.13901 43.988998
-21.157101 -205.965 43.510502
-23.4158 -219.453 43.976799
-21.149599 -211.282 43.508801
-21.8915 -232.05901 44.128899
-25.4063 -233.827 44.315498
-21.928301 -201.351 43.4226
-21.041401 -208.647 43.448898
-21.2106 -226.465 43.650799
-24.197599 -214.267 43.417999
-22.746401 -182.54201 44.028702
-23.633499 -214.556 43.4259
-21.4072 -222.40401 43.821301
-23.263599 -226.979 43.709499
-25.582701 -205.834 43.340599
-24.114401 -235.786 44.441898
-22.5049 -228.776 43.926998
-22.461 -225.132 43.686401
-22.9007 -203.68401 43.805901
-25.094101 -233.024 43.679798
-22.4478 -206.44099 43.438
-23.623501 -206.57899 43.336899
-27.402 -236.205 44.382599
-21.0889 -210.258 43.894699
-22.817301 -204.653 43.395802
-22.0749 -219.117 44.016201
-25.667999 -234.34801 44.182098
-21.4347 -226.047 43.714298
-25.2379 -201.97 43.659901
-23.1504 -205.88499 43.387199
-22.8731 -203.267 43.3186
-21.3442 -207.49899 44.0452
-26.5327 -228.578 43.595699
-25.766399 -232.64799 43.671799
-24.424299 -221.467 43.8283
-24.8167 -232.98801 44.157001
-23.427401 -225.276 43.875301
-26.5378 -226.72099 43.6717
-21.6068 -223.959 43.678501
-22.325001 -180.657 44.418999
-22.0154 -205.27699 43.416801
-25.35 -219.263 44.330502
-21.2852 -208.19 43.845901
-23.7138 -229.658 43.972198
-23.745501 -224.064 44.015099
-24.3925 -206.56599 43.445499
-26.998501 -231.877 43.908298
-27.542601 -228.692 43.521702
-22.4995 -234.91299 44.355
-22.957701 -232.959 43.891998
-24.8148 -214.855 43.515701
-25.368299 -228.554 43.494701
-24.4757 -234.64799 44.349098
-21.3524 -208.689 44.071201
-22.8503 -224.336 44.085098
-26.3249 -230.94 43.5
-23.4531 -215.519 43.465302
-24.2864 -233.412 44.1595
-25.8297 -230.91499 43.8652
-24.504499 -205.923 43.758598
-26.895201 -227.959 43.556
-23.011101 -235.205 44.382702
-21.416201 -225.51601 43.700699
-22.209801 -230.549 43.727001
-21.820601 -223.5 43.711399
-23.4429 -220.061 43.8321
-22.996901 -214.789 43.4529
-21.063601 -229.653 43.9259
-25.986601 -204.314 43.244202
-25.676201 -227.75301 43.659401
-22.975901 -224.75301 43.698399
-27.3974 -232.703 43.527802
-23.0282 -229.062 43.5075
-21.423599 -232.157 44.120998
-26.332899 -234.267 43.957401
-24.753799 -233.78101 44.674301
-21.318199 -213.60201 43.5201
-24.200701 -214.795 43.397301
-24.333401 -230.681 43.666401
-21.3248 -215.84399 43.507801
-24.4853 -202.989 43.249599
-21.304899 -228.283 43.6577
-22.4611 -233.08701 44.131302
-22.648899 -208.05 44.195599
-25.7344 -230.254 43.829899
-24.7339 -221.04201 44.143501
-24.5534 -201.80901 43.204399
-22.1322 -229.994 43.575199
-23.017799 -229.854 43.837799
-22.3839 -227.677 43.6353
-25.8979 -233.905 44.295799
-25.4897 -230.952 43.529598
-26.122101 -234.32401 44.403198
-21.322201 -202.586 43.417999
-21.6558 -228.603 43.806801
-24.186701 -227.966 43.974602
-21.991699 -216.515 44.3839
-21.2847 -215.215 43.502899
-23.117001 -234.151 44.327801
-21.238701 -229.987 43.6343
-21.655701 -230.256 43.5928
-24.9709 -228.686 43.821999
-22.907 -227.76801 43.692299
-21.3699 -203.952 43.437901
-26.7791 -232.81799 43.791901
-23.270901 -230.754 43.9972
-26.478701 -227.724 43.565201
-25.189301 -223.929 43.699799
-22.4793 -225.71201 43.750198
-27.6714 -227.022 43.602501
-22.103399 -228.586 43.5616
-22.9702 -213.92999 43.469898
-21.7509 -232.506 44.035198
-27.391001 -229.381 43.8241
-22.237 -218.229 44.096802
-21.5968 -224.604 43.628101
-21.385401 -205.444 43.446499
-24.5334 -226.577 43.652199
-23.190599 -205.05 43.4165
-21.236601 -201.364 43.5835
-25.876499 -231.505 43.5564
-23.410801 -227.51601 43.679298
-23.8218 -203.64799 43.360802
-22.2791 -219.06799 44.4674
-22.536501 -223.10201 43.7258
-26.9128 -232.02 43.436798
-22.9743 -231.33299 44.105499
-21.806 -202.306 43.414799
-25.2628 -224.98801 44.1077
-26.9139 -235.052 44.1073
-21.991501 -225.556 43.7416
-21.927099 -206.56 43.428799
-24.423599 -224.584 43.880299
-23.3962 -230.49899 43.524601
-24.414301 -229.92 43.884399
-25.681499 -221.37399 44.235298
-21.298 -229.47099 43.5467
-22.879299 -233.425 43.998901
-23.6443 -206.10201 43.3974
-24.423201 -222.35699 43.6189
-23.583799 -232.786 44.122101
-26.4261 -232.584 43.5397
-24.623301 -230.94901 44.000702
-22.4554 -226.96201 43.852402
-21.7034 -213.21201 43.518101
-24.207199 -201.47501 43.589401
-23.0641 -225.59599 43.635502
-21.3319 -206.519 43.430599
-22.7246 -206.621 43.900299
-22.298599 -201.96899 43.3269
-24.476801 -225.41901 43.598999
-23.4473 -215.013 43.425598
-23.0994 -204.517 43.774502
-22.657801 -205.84 43.398998
-27.7563 -228.343 43.798698
-23.9641 -222.44701 43.716
-25.3097 -233.004 44.126099
-22.0481 -181.121 44.202499
-21.9659 -207.341 43.821999
-22.370001 -201.45599 43.626801
