# .PCD v0.7 - Point Cloud Data file format
VERSION 0.7
FIELDS x y z
SIZE 4 4 4
TYPE F F F
COUNT 1 1 1
WIDTH 1200
HEIGHT 1
VIEWPOINT 0 0 0 1 0 0 0
POINTS 1200
DATA ascii
-17.1064 -183.45799 43.311901
-13.5762 -176.711 42.997601
-19.6481 -229.806 43.686001
-15.0586 -185.66701 43.309601
-19.658701 -215.543 43.593102
-18.002001 -221.27901 43.799301
-18.1257 -198.739 43.802399
-14.1338 -201.48 43.385799
-14.664 -168.767 42.865299
-17.995701 -230.226 43.855701
-19.6397 -227.44501 43.8895
-15.7932 -219.2 43.656502
-16.306299 -198.72301 43.2827
-20.7491 -233.75999 44.276199
-17.806999 -195.504 43.859901
-20.200701 -231.77499 43.9361
-13.5767 -210.564 43.5578
-14.6891 -180.429 43.013802
-14.0929 -189.27499 43.3027
-17.400999 -218.549 44.097301
-18.003901 -211.256 43.565701
-13.5797 -180.714 42.963799
-13.5862 -204.95799 43.483898
-14.7936 -182.832 43.159199
-16.3081 -176.078 42.999298
-15.2252 -199.02 43.270599
-14.6723 -199.62 43.321201
-15.019 -227.89799 43.882599
-19.232599 -203.62199 43.538502
-13.3498 -190.561 43.333302
-16.305901 -185.401 43.315899
-19.101999 -230.355 43.802799
-15.4802 -206.593 43.608299
-16.341299 -175.69701 43.323799
-18.525499 -206.40601 43.566399
-13.5884 -183.547 43.027302
-16.367001 -169.85201 43.8661
-21.024599 -209.89101 43.547901
-14.1186 -193.864 43.3036
-16.009199 -211.64799 43.756802
-14.67 -186.709 43.256302
-15.8892 -227.702 43.879101
-16.901699 -176.174 43.343498
-13.5791 -193.703 43.326199
-15.7603 -169.12601 42.983898
-16.001499 -165.332 43.290298
-17.4212 -195.806 43.334599
-15.7648 -186.72099 43.502602
-15.2438 -229.237 43.868999
-13.5756 -177.685 43.078999
-14.135 -213.616 43.569401
-16.878401 -179.709 42.710701
-16.861 -171.092 44.439201
-16.2988 -176.75 43.006802
-15.7544 -189.879 43.321602
-14.8402 -183.714 43.345501
-16.894699 -207.724 43.466301
-16.8167 -175.132 43.289398
-15.3418 -197.976 43.5723
-15.2336 -217.591 43.615601
-18.041201 -231.354 44.0495
-13.4746 -171.541 43.570499
-19.6616 -214.907 43.5975
-14.6076 -209.377 43.8661
-16.9687 -181.94 42.749199
-14.6686 -176.189 42.924801
-15.7602 -176.10201 42.984798
-18.549601 -225.04201 43.6609
-14.1331 -202.284 43.3881
-13.5827 -216.948 43.704201
-16.8929 -222.217 43.645802
-16.3561 -170.66499 43.856499
-20.745899 -215.55 43.5513
-15.7555 -169.918 42.979
-19.035 -210.558 43.877998
-17.446199 -230.174 43.895401
-14.6615 -175.16299 42.910198
-20.575199 -201.409 43.431801
-16.213499 -199.22301 43.335999
-16.121799 -184.826 43.330101
-17.5271 -178.16499 43.0882
-16.2264 -213.427 44.036201
-19.659201 -230.776 43.888302
-19.0434 -217.79601 43.924099
-15.795 -220.29201 43.736301
-15.2605 -220.12199 43.7799
-13.5783 -202.56 43.4445
-18.436001 -221.907 43.797199
-17.279699 -173.49001 44.382
-13.5824 -186.86 43.311401
-14.113 -198.32201 43.318699
-17.0495 -201.03 43.320301
-16.3214 -189.942 43.3284
-17.105801 -179.151 42.746399
-14.1422 -193.12801 43.310398
-14.9454 -206.883 43.666302
-16.237499 -169.535 43.297401
-14.2455 -196.256 43.316399
-14.1408 -205.845 43.4986
-18.565399 -197.16 45.074501
-19.642799 -226.89301 43.653
-20.743999 -224.714 43.751701
-14.6399 -194.239 43.291698
-19.0996 -217.20399 43.7617
-15.6496 -180.01401 42.762901
-15.7918 -224.243 43.649502
-16.346399 -230.418 43.9739
-14.124 -185.89 43.307098
-15.2391 -222.03799 43.7467
-15.2349 -220.867 43.766998
-19.537001 -211.46201 43.6119
-14.3369 -195.22099 43.301601
-16.445801 -167.092 42.958302
-19.0819 -221.25999 43.823101
-17.9823 -209.715 43.4594
-17.6383 -228.51401 43.881401
-20.1782 -227.202 43.659801
-17.4513 -230.823 43.979401
-13.5841 -213.87801 43.608299
-14.6264 -198.79201 43.3297
-14.2525 -217.263 43.891102
-17.9177 -230.752 44.0476
-17.9865 -229.38499 43.761799
-15.8017 -175.599 43.299301
-14.6835 -213.089 43.558701
-18.0882 -200.90601 43.308498
-15.2085 -201.90199 43.646599
-16.5569 -218.103 43.991299
-20.2687 -218.59399 43.8507
-14.1397 -165.409 42.797199
-16.3165 -187.067 43.537701
-20.8985 -222.01199 43.788799
-16.217501 -221.8 43.885502
-17.425699 -201.776 43.424
-17.9792 -217.96001 43.820202
-16.361 -171.58 43.311298
-15.7786 -170.714 42.9762
-14.9631 -198.11099 43.289398
-15.7929 -225.09 43.620399
-21.021299 -225.78999 43.725899
-18.837999 -211.936 43.9548
-17.4592 -193.10201 42.7514
-16.330299 -198.06 43.3069
-16.988501 -171.795 44.432999
-20.896299 -229.151 43.876499
-16.816299 -175.621 43.2607
-20.797199 -228.123 44.039398
-17.478399 -192.00101 42.7005
-15.9243 -204.93201 43.838501
-14.3685 -199.254 43.342602
-15.2247 -202.254 43.311298
-14.7881 -228.57001 43.873798
-14.2981 -164.67101 42.763199
-14.8726 -196.517 43.7836
-15.2422 -222.847 43.716202
-16.865 -186.649 43.534599
-15.614 -174.30499 42.967899
-17.443899 -208.08299 43.494301
-15.2127 -176.80701 42.956902
-16.3349 -224.424 43.617599
-14.0419 -227.967 43.879902
-15.7936 -222.198 43.729099
-17.4457 -190.58701 43.388802
-13.6746 -181.87399 42.665501
-14.6924 -201.312 43.821301
-19.6658 -209.146 43.924702
-16.6014 -181.506 42.426399
-15.2625 -179.51199 42.539799
-16.9013 -215.907 43.527802
-13.473 -188.827 43.321999
-16.244801 -169.92599 42.9151
-13.5728 -198.48199 43.385799
-20.389 -206.87 43.5228
-17.116501 -187.08299 43.2449
-17.5165 -175.922 43.084702
-13.5839 -199.30299 43.382599
-19.162901 -209.13499 43.547199
-14.1355 -207.00999 43.523602
-17.312201 -201.299 43.6367
-14.7469 -217.944 43.882301
-19.058701 -205.295 43.530102
-20.2365 -224.24699 43.612
-16.3862 -207.045 43.3974
-13.401 -164.334 42.774799
-14.6734 -177.847 43.0135
-15.7883 -215.73399 43.506001
-18.903 -212.588 43.865601
-15.24 -215.562 43.783298
-15.454 -228.562 43.880199
-15.2274 -189.731 43.193901
-17.226601 -174.778 43.200901
-18.8251 -204.15601 43.877602
-15.1932 -196.112 43.782299
-15.73 -167.10201 42.917999
-17.451799 -191.80099 42.190899
-14.1496 -228.451 43.873299
-14.1374 -177.912 43.024101
-20.1213 -214.7 43.559299
-20.184099 -226.379 43.6828
-15.6134 -189.32401 43.376801
-16.368401 -179.394 42.7799
-16.3239 -196.702 43.758301
-14.6549 -186.174 43.405102
-14.1332 -214.93201 43.6194
-17.431101 -200.155 43.388302
-15.7701 -198.858 43.260899
-13.8128 -191.076 43.258999
-15.2544 -211.45399 43.853802
-17.349899 -179.841 42.7421
-18.644199 -198.632 43.382401
-13.8715 -189.811 43.322399
-17.379499 -191.44099 42.908699
-14.6967 -219.976 43.890701
-16.6723 -190.328 43.319302
-14.1378 -179.24699 42.7285
-17.440201 -192.627 42.706402
-15.2384 -177.814 43.007
-15.079 -192.448 43.7911
-17.5266 -214.619 43.991798
-13.6017 -184.007 43.2817
-17.4265 -206.39101 43.459702
-19.063801 -206.40401 43.541599
-15.2432 -178.769 43.102798
-17.987101 -228.10201 43.5993
-20.9193 -207.278 43.486198
-13.8077 -186.21001 43.493099
-14.6701 -165.993 42.867901
-16.896099 -183.97 42.9161
-13.3477 -186.062 43.549999
-14.6827 -213.73801 43.586201
-19.629101 -220.23399 43.900902
-14.6336 -174.308 42.957901
-14.6888 -229.69099 43.938
-16.8958 -229.03 43.893501
-13.4113 -191.34399 43.2789
-16.306999 -211.256 43.800701
-15.0983 -186.35699 43.299099
-19.4879 -221.524 43.889801
-16.337601 -222.784 43.669399
-17.451599 -226.99899 43.5611
-13.3633 -187.733 43.333099
-15.8478 -207.24899 43.7715
-18 -226.41299 43.573299
-19.3242 -213.149 43.791302
-19.5993 -206.34399 43.528599
-19.994101 -209.672 43.584801
-14.4697 -204.993 43.8867
-14.1403 -186.448 43.2467
-17.9547 -200.054 43.396801
-19.5868 -230.248 43.8554
-17.423 -229.513 43.885502
-17.481501 -231.332 44.061501
-13.6354 -217.936 43.8797
-16.297899 -171.06799 43.336399
-13.3347 -189.864 43.3372
-19.2458 -220.814 43.786598
-19.1329 -227.524 43.855598
-20.2516 -228.021 44.023602
-19.1565 -206.955 43.536499
-15.4215 -218.735 43.869301
-14.7027 -178.642 42.776501
-17.408899 -197.39 43.434399
-14.8894 -214.793 43.872601
-17.3922 -176.63 43.223598
-14.1312 -203.883 43.418701
-20.749599 -230.42101 43.687599
-16.3466 -178.677 42.7094
-16.347099 -172.17 43.392399
-19.8155 -214.526 43.978199
-17.4377 -186.103 44.982101
-17.473499 -175.37199 42.918999
-13.5876 -213.22301 43.605499
-17.0331 -174.07899 44.403801
-16.3244 -189.192 43.334202
-15.3321 -163.37601 42.763
-20.050301 -229.709 43.9673
-13.5684 -228.689 43.869099
-19.396799 -226.035 44.0667
-16.8957 -230.18201 43.912102
-13.4656 -169.50301 42.9893
-16.0233 -207.71001 43.6362
-19.188101 -209.66499 43.535
-19.102501 -228.70799 43.882401
-17.453899 -184.379 44.896301
-15.7957 -172.548 42.979
-18.536699 -218.526 43.645302
-14.7017 -217.403 43.8097
-13.4276 -164.89 42.7644
-14.1416 -204.687 43.478001
-14.1042 -169.88499 42.759201
-14.1357 -210.98599 43.527802
-16.687901 -199.32899 43.32
-18.362101 -200.446 43.3162
-15.804 -219.774 43.752998
-19.6049 -232.687 44.1106
-14.6862 -219.246 43.7365
-16.855301 -216.39301 43.438999
-13.5834 -229.716 43.949001
-20.203699 -230.164 43.874699
-16.712799 -230.71201 44.059299
-13.3423 -172.908 43.446301
-16.4286 -218.948 43.940399
-16.320499 -188.588 43.299099
-17.263 -188.069 43.320099
-20.256901 -221.90199 43.874298
-14.6833 -165.44 42.844601
-16.3001 -203.16299 43.424801
-17.440599 -210.254 43.474899
-20.2575 -215.892 43.558201
-14.6843 -170.088 42.921799
-15.7973 -221.701 43.6637
-20.733601 -231.668 43.894402
-16.8064 -219.14101 43.594299
-16.233801 -190.521 43.312599
-14.7902 -208.68201 43.489498
-16.906799 -168.90601 44.376099
-14.1182 -179.737 42.730801
-14.8446 -180.96001 42.762699
-16.344801 -202.517 43.391102
-16.8894 -185.44099 43.289501
-14.1391 -221.07001 43.821301
-13.6651 -220.15199 43.880001
-16.447701 -211.78101 43.917099
-14.5411 -179.29401 42.416302
-14.4305 -220.42799 43.881199
-14.5872 -208.283 43.903801
-16.871099 -194.03101 43.405701
-20.586 -207.74899 43.498402
-17.854 -196.287 43.8624
-18.5354 -228.367 43.580101
-17.472401 -211.453 43.496601
-15.1072 -212.63699 43.558998
-18.1241 -229.77299 44.006199
-13.5805 -180.276 42.760101
-14.1488 -166.091 42.973099
-16.8076 -229.668 43.9025
-20.257 -201.746 43.790501
-15.7736 -199.66499 43.259899
-20.3174 -228.563 43.863899
-20.3993 -214.12199 43.717899
-14.1816 -218.017 43.8988
-17.3813 -215.82899 43.537998
-16.345301 -183.608 43.335899
-19.66 -228.534 43.913399
-15.8254 -185.36301 43.307301
-14.6875 -226.60699 43.677601
-15.8017 -215.556 43.956001
-14.9011 -178.981 42.4949
-16.6938 -177.561 43.322102
-14.1145 -195.731 43.318901
-14.6926 -201.65601 43.348701
-18.454901 -203.51401 42.979099
-14.4151 -227.67101 43.8913
-18.366699 -202.013 43.6623
-13.5795 -196.466 43.370499
-16.333 -180.718 42.749199
-18.5436 -226.69701 43.601002
-15.2433 -202.847 43.316799
-13.9494 -183.955 43.6535
-17.111099 -228.60001 43.868599
-19.102501 -227.013 43.6525
-15.7801 -201.28799 43.269699
-19.1199 -214.162 43.9487
-17.7096 -225.869 43.889999
-19.805099 -204.325 43.533401
-15.8538 -198.036 43.4016
-14.1391 -215.60699 43.622101
-13.6018 -163.87801 42.697201
-17.3766 -229.04201 43.9786
-15.9158 -168.675 42.516701
-14.8369 -213.963 43.979301
-13.585 -226.94901 43.7453
-16.4695 -227.496 43.893299
-18.2167 -199.069 43.320801
-14.1402 -223.89 43.752201
-14.7471 -210.399 43.843498
-17.297001 -188.688 43.312401
-15.1107 -185.261 43.5914
-20.7393 -227.23599 43.9086
-17.943701 -197.87601 43.865299
-13.5897 -228.142 43.861698
-15.6638 -178.625 42.763302
-19.613701 -212.804 43.514599
-13.9582 -185.02299 43.376099
-18.352501 -194.883 45.406601
-14.0086 -205.255 43.543301
-16.8596 -196.99001 43.374401
-19.796 -210.845 43.575298
-17.847601 -192.29201 42.09
-20.789301 -226.315 43.8214
-19.6556 -222.25 43.7953
-15.6587 -162.97301 42.819901
-17.4557 -188.696 44.019699
-16.3319 -200.34 43.265202
-13.4451 -194.47501 43.310699
-13.5846 -165.938 42.762299
-14.7146 -177.33501 43.0574
-16.3139 -170.45799 43.333302
-20.8624 -204.16 43.609798
-14.1362 -209.95 43.541401
-13.586 -178.315 43.1479
-17.5047 -193.718 42.518799
-17.4228 -194.34399 43.4105
-19.652201 -223.336 43.819401
-14.5161 -197.94501 43.325802
-14.0443 -213.08701 43.6269
-19.093599 -214.88499 43.590302
-20.9816 -204.843 43.6744
-16.889799 -225.903 43.550999
-16.7176 -190.916 43.377499
-13.5963 -220.77299 43.817799
-15.0168 -170.67799 42.998199
-17.888901 -196.879 43.8759
-19.545 -214.198 43.627399
-13.5935 -185.431 43.484901
-15.2533 -225.765 43.697701
-14.5036 -204.192 43.431999
-13.5959 -204.388 43.506901
-17.9881 -207.58099 43.495201
-13.5817 -208.787 43.539799
-15.8196 -221.067 43.923199
-18.466299 -203.27299 43.667198
-13.5826 -212.243 43.575199
-17.459299 -227.519 43.824699
-19.0837 -223.384 43.8111
-20.745501 -232.48 43.985901
-16.8139 -173.209 44.431999
-14.6929 -229.22501 44.043598
-16.1947 -174.263 42.467201
-15.7908 -225.95 43.626202
-14.5426 -216.942 43.6768
-19.708099 -207.19099 43.5238
-13.5353 -192.916 43.309799
-16.904301 -210.884 43.5089
-16.585899 -200.888 43.3209
-17.927999 -202.069 43.444099
-14.1631 -180.522 42.701698
-16.3449 -172.52901 42.9655
-16.9107 -174.701 44.6269
-14.0759 -192.61099 43.3409
-17.401199 -196.38699 43.379002
-20.254299 -204.625 43.494701
-14.6936 -211.142 43.862598
-14.6426 -200.33 43.317799
-15.4293 -202.92599 43.8382
-16.052299 -193.935 43.319199
-15.4546 -229.63 44.039299
-20.0474 -215.237 43.612701
-17.078501 -210.66299 43.893398
-16.2878 -175.032 42.9659
-17.832199 -193.20599 42.193501
-15.9465 -178.24001 42.797699
-18.576401 -227.722 43.891201
-18.6901 -208.686 43.878899
-19.5872 -224.834 43.7621
-14.8059 -200.88901 43.322102
-18.552999 -214.633 43.534199
-18.013201 -222.147 43.657299
-16.8388 -192.114 43.158501
-15.2341 -226.686 43.6623
-16.624901 -221.658 43.620098
-14.1104 -197.04201 43.707699
-14.6989 -230.2 44.068501
-20.4533 -226.851 43.892799
-17.998501 -210.245 43.5047
-13.5747 -203.763 43.445301
-16.9667 -189.276 43.315399
-18.541201 -228.87801 43.8936
-18.585699 -210.203 43.480801
-18.6201 -181.006 44.472401
-15.1163 -199.814 43.338501
-13.5949 -216.37601 43.754299
-17.0233 -201.52499 43.319302
-15.2259 -194.28999 43.233898
-17.8251 -194.36099 44.899101
-17.816799 -198.78799 43.4072
-15.641 -184.78101 43.258801
-19.555901 -205.161 43.498402
-16.9121 -180.99899 42.7314
-16.2314 -173.755 42.959999
-20.2307 -230.791 43.8489
-13.9652 -188.47501 43.230301
-13.5864 -207.673 43.5415
-16.8972 -198.256 43.346699
-14.1383 -197.633 43.314499
-15.7703 -186.03999 43.444599
-19.010599 -207.75101 43.862801
-20.7236 -214.933 43.504902
-16.311001 -197.47701 43.3116
-18.5331 -202.69901 43.643902
-20.2533 -220.091 44.021301
-14.9107 -215.284 44.0662
-19.406 -207.692 43.581902
-13.5972 -218.526 43.8717
-15.9227 -171.18401 42.976898
-20.2124 -216.616 43.8372
-18.3458 -194.619 44.996799
-16.9666 -197.526 43.316299
-17.4151 -197.98599 43.392502
-17.989901 -206.30299 43.474701
-16.4338 -172.634 43.507301
-13.5867 -189.397 43.294498
-17.261499 -183.903 43.240398
-19.194799 -201.98399 43.517799
-14.0899 -191.55 43.246799
-17.6259 -181.98199 44.922401
-16.3466 -228.28799 43.732101
-17.3682 -178.757 42.820202
-17.574301 -199.202 43.319599
-20.2365 -205.16 43.501999
-18.9083 -229.09 43.664902
-19.6332 -228.974 43.6572
-16.9468 -178.58 42.5364
-14.6928 -216.25 43.723999
-18.5865 -220.746 43.7575
-20.407301 -211.80701 43.958099
-16.927099 -169.38 44.469398
-18.7626 -199.12399 43.317101
-19.7003 -217.37 43.975201
-17 -178.278 43.318298
-16.3346 -177.77901 43.045502
-14.1379 -208.87601 43.5214
-14.7362 -220.80701 43.856701
-16.340099 -223.59599 43.6413
-18.1751 -204.246 43.884701
-19.714899 -201.873 43.440701
-13.8969 -187.709 43.2505
-14.2746 -196.79601 43.324402
-16.4188 -181.80701 42.765598
-18.5748 -196.94099 44.634399
-13.5895 -221.765 43.825699
-17.452499 -219.237 43.629501
-17.991899 -227.255 43.570099
-17.296499 -221.91701 43.753601
-16.3377 -201.43401 43.3283
-17.8183 -195.411 44.4221
-20.7593 -209.105 43.5476
-18.0047 -215.522 43.541698
-13.8314 -180.935 42.5951
-18.119499 -228.466 43.970001
-15.7629 -166.51199 42.710701
-16.6311 -201.819 43.327999
-17.3223 -198.66299 43.3158
-14.4293 -211.367 43.527699
-19.4741 -219.494 43.890598
-16.3174 -174.349 42.944099
-17.422199 -193.186 43.2355
-16.3568 -228.808 43.870998
-19.021601 -202.536 43.546501
-16.3297 -199.797 43.265499
-20.2593 -217.36501 44.1754
-15.2472 -180.28101 42.826099
-14.1304 -190.323 43.2528
-15.7599 -202.008 43.358601
-19.120899 -220.30701 43.8274
-19.4918 -217.97099 44.0257
-16.331499 -215.953 43.453499
-15.1396 -190.44901 43.222599
-15.931 -209.735 43.8144
-17.693001 -196.979 43.2495
-15.7585 -202.877 43.292599
-15.2001 -169.19701 42.957401
-16.873899 -211.362 43.5098
-16.1712 -184.25999 43.233501
-15.7995 -230.799 44.0821
-15.519 -198.338 43.2388
-14.4394 -203.134 43.8386
-15.2416 -207.347 43.4575
-16.721901 -176.942 43.116501
-15.0868 -207.62601 43.8461
-20.114401 -222.354 43.6922
-18.022301 -225.589 43.5975
-17.435499 -202.403 43.398499
-16.5434 -174.623 43.2967
-16.8925 -227.62601 43.638302
-18.472401 -227.183 43.763802
-14.7995 -179.83099 42.7603
-16.3389 -226.989 43.627899
-18.556601 -211.562 43.5466
-16.010401 -201.571 43.713501
-15.8035 -226.54201 43.734501
-16.9554 -168.886 44.874599
-18.017799 -228.909 43.8083
-15.2241 -176.13699 42.938
-15.2548 -223.959 43.592201
-15.2604 -168.261 42.870602
-15.1732 -219.147 43.8307
-19.331301 -210.98599 43.624401
-18.5481 -221.321 43.833801
-13.5301 -170.244 43.3302
-16.672501 -180.418 42.908001
-16.2258 -185.951 43.3186
-17.149401 -218.83299 43.7197
-13.7478 -229.103 44.057301
-19.1546 -216.339 44.018902
-14.127 -219.91 43.802399
-14.7461 -198.004 43.771
-14.6674 -189.49001 43.223
-18.819401 -213.61301 43.5779
-18.014601 -205.108 43.468201
-19.089701 -203.15601 43.553699
-17.895399 -197.412 43.756199
-20.0273 -211.46201 43.519699
-18.5688 -204.66299 43.5462
-20.650101 -222.47301 43.7206
-17.3911 -191.491 43.400799
-14.1371 -200.993 43.367599
-18.539801 -214.146 43.537899
-14.6641 -190.409 43.224098
-13.5734 -163.18401 42.702599
-13.634 -184.485 43.4053
-14.2766 -199.89799 43.376598
-14.1526 -208.382 43.5201
-19.2325 -204.2 43.5555
-17.126101 -180.403 42.653198
-14.6838 -221.52699 43.806099
-18.424 -229.332 43.981098
-17.487101 -226.29201 43.620098
-18.520901 -197.668 44.950901
-18.555201 -207.177 43.540901
-13.2668 -226.31799 43.7882
-13.5896 -165.40199 42.743698
-17.3992 -195.07899 43.407799
-19.1008 -225.992 43.643398
-15.7712 -212.66701 44.0261
-18.520599 -209.705 43.511002
-17.9571 -203.677 43.4571
-15.7312 -200.33 43.231899
-20.251101 -225.556 43.701099
-17.471399 -206.985 43.451801
-19.697599 -202.677 43.531898
-15.3233 -180.811 42.800598
-15.7512 -165.91499 42.890099
-13.3684 -203.22701 43.477798
-13.585 -209.511 43.5439
-18.803699 -224.134 43.586399
-17.4529 -216.51801 43.5424
-15.8861 -228.347 43.958698
-18.6966 -174.073 44.424301
-14.1248 -174.30901 42.887199
-16.943001 -206.7 43.437901
-18.521099 -215.50101 43.567001
-15.815 -180.425 42.944302
-21.0217 -207.991 43.457802
-17.4671 -222.416 43.646198
-16.2945 -186.489 43.492001
-14.5812 -185.67799 43.352501
-16.868401 -189.87801 43.348
-16.610201 -216.299 43.980499
-18.549299 -217.13699 43.590698
-17.458401 -225.41901 43.5578
-15.4186 -221.36 43.7146
-17.5 -214.966 43.6021
-16.902399 -228.13 43.931999
-17.1633 -186.261 43.310299
-16.900801 -200.496 43.324402
-13.7584 -176.173 43.3311
-14.1533 -178.563 42.734901
-20.215799 -203.797 43.4599
-14.5821 -208.851 43.919102
-16.3573 -229.383 43.8764
-17.104099 -169.85699 44.384499
-16.9058 -222.714 43.503799
-14.7433 -211.955 43.5592
-19.8883 -206.73599 43.493401
-16.8472 -187.317 43.561199
-13.5667 -175.696 42.951801
-14.1427 -174.785 43.0481
-13.8034 -196.922 43.362499
-17.98 -222.759 43.7309
-17.993401 -214.062 43.539799
-14.6864 -224.855 43.667
-20.319201 -218.05901 44.087799
-14.6893 -206.42599 43.823399
-18.867599 -212.20399 43.557899
-15.8913 -188.851 43.314999
-16.8748 -215.27499 43.5686
-20.8971 -222.88 43.7537
-15.9378 -218.75 43.7882
-15.4494 -216.57001 43.878601
-19.1105 -219.16701 43.744999
-13.5893 -169.935 42.808701
-16.886499 -224.218 43.577999
-18.815399 -229.586 43.874001
-13.9223 -169.37399 42.760899
-15.2071 -165.44 42.862099
-18.0021 -224.743 43.610199
-16.917 -196.517 43.3592
-13.6935 -178.692 42.7929
-18.5061 -203.87601 43.6567
-14.1405 -229.573 44.055
-20.818501 -224.09801 43.599201
-14.6959 -227.177 43.822102
-14.1282 -200.506 43.396702
-16.8207 -188.606 43.328602
-17.647301 -199.69901 43.3148
-18.5483 -223.076 43.781399
-14.7521 -209.754 43.5532
-15.2499 -189.123 43.141701
-16.9625 -199.774 43.309399
-19.809999 -231.20399 44.065102
-18.8964 -211.186 43.556198
-13.594 -208.263 43.593201
-20.7229 -223.593 43.788502
-14.118 -163.729 42.745998
-14.0535 -172.754 43.335701
-13.8457 -200.106 43.3699
-13.588 -224.15199 43.726799
-17.2246 -193.67 43.389198
-15.7586 -164.75999 42.829201
-15.8191 -179.077 42.464199
-14.7259 -205.631 43.406799
-15.6481 -195.73 43.566399
-16.0632 -200.86 43.463402
-19.7369 -225.69501 43.721802
-14.6383 -163.129 42.7612
-15.2212 -174.77499 42.943699
-14.1739 -219.08099 43.882198
-19.1451 -225.39301 43.68
-16.263201 -193.332 43.456402
-18.0166 -223.806 43.492802
-21.005199 -209.452 43.769699
-18.574499 -208.132 43.5303
-14.6795 -163.733 42.757599
-14.0166 -172.216 43.655602
-13.5559 -182.899 42.762501
-13.5998 -219.125 43.881001
-19.126699 -230.785 44.0424
-13.5853 -214.87399 43.646
-16.6817 -185.866 43.439701
-14.194 -211.92999 43.577499
-20.5497 -229.69299 43.952202
-20.7773 -220.40401 43.955299
-14.1389 -224.82001 43.669102
-13.5693 -175.01199 42.934101
-19.7554 -220.99699 43.9189
-16.423201 -211.466 43.3811
-17.373199 -228.007 43.902302
-14.1528 -212.403 43.6199
-13.5572 -177.188 43.175999
-16.8773 -203.30499 43.401699
-14.696 -202.183 43.3531
-18.1996 -211.957 43.510502
-14.1316 -176.605 42.925201
-16.063299 -166.521 43.292
-14.0473 -210.483 43.5172
-13.5949 -174.45599 43.0625
-17.772499 -194.914 43.864899
-15.5318 -217.23801 43.753101
-17.9245 -198.34399 43.6101
-17.998501 -219.17999 43.6231
-16.141899 -167.86 43.296799
-19.694401 -227.925 43.8596
-17.995701 -216.485 43.541698
-14.5901 -179.211 42.888
-20.255899 -229.026 44.056198
-20.104799 -202.317 43.8839
-18.066601 -219.444 44.0606
-15.7388 -175.065 42.971699
-16.958799 -180.494 41.967999
-15.3232 -187.108 43.777401
-14.3263 -207.51401 43.4874
-20.9006 -207.245 43.975601
-18.021999 -214.856 43.596001
-15.7961 -228.98801 43.829899
-17.688101 -214.463 43.549599
-13.991 -164.304 42.792599
-13.8528 -175.37 43.166199
-16.209801 -168.43401 43.330502
-20.519199 -211.625 43.487801
-18.0189 -209.179 43.460899
-16.1863 -215.453 43.543201
-15.3311 -227.537 43.8624
-17.8766 -201.58299 43.354698
-13.3024 -223.58099 43.7411
-19.091101 -219.81799 43.677502
-15.7875 -177.789 43.0201
-13.4703 -199.815 43.407501
-19.265301 -210.308 43.5317
-13.5812 -188.181 43.266998
-15.8214 -168.384 42.885201
-17.100201 -183.705 43.743198
-17.9652 -212.593 43.5364
-16.292101 -169.408 44.144699
-14.1407 -216.325 43.7421
-17.4555 -189.388 43.362701
-15.0464 -219.65601 43.790401
-20.6206 -231.009 44.064899
-16.213499 -163.66 43.2896
-14.6965 -180.245 42.540001
-16.898199 -184.44501 42.684601
-19.067699 -226.407 44.111401
-14.8595 -203.12601 43.362301
-21.0238 -211.79401 43.874802
-18.287399 -226.002 43.933701
-15.3725 -178.998 42.662201
-16.7708 -188.125 43.2929
-20.249599 -207.347 43.534599
-18.5741 -217.617 43.805698
-20.334101 -227.55099 43.964802
-19.637501 -226.341 43.738899
-17.338301 -207.54201 43.4865
-14.7329 -212.325 43.8853
-20.6549 -202.465 43.445202
-17.3696 -180.015 43.304001
-13.5867 -225.28799 43.697102
-15.2226 -200.642 43.277802
-16.1828 -168.895 42.896999
-14.5789 -209.89799 43.9739
-14.1292 -178.84399 43.119499
-21.0082 -214.53999 43.5695
-18.546301 -210.83 43.539299
-18.257 -224.222 43.539299
-13.7299 -225.742 43.745998
-15.2406 -230.599 44.033298
-17.9879 -218.59 43.687599
-17.331699 -183.776 44.981201
-13.5867 -211.58099 43.558201
-17.3447 -187.71201 43.855499
-16.462099 -168.584 44.803001
-20.847099 -206.67599 43.487499
-13.4151 -179.57201 42.530602
-14.7028 -204.983 43.466499
-18.001801 -210.772 43.522301
-13.5769 -200.94 43.412102
-20.4291 -220.87801 43.889599
-16.3699 -179.87399 42.749001
-18.1199 -173.95799 44.2272
-16.717501 -192.54201 43.344101
-16.244499 -222.254 43.5532
-18.545799 -212.59 43.5495
-13.5875 -223.12 43.804001
-20.415001 -205.84399 43.5368
-15.2602 -230.08099 44.046299
-14.1834 -203.09801 43.431599
-17.2931 -186.151 44.4207
-20.937099 -232.041 44.111801
-18.039 -208.089 43.5051
-20.848301 -232.996 44.225899
-13.9177 -171.931 43.2094
-13.5749 -187.304 43.543301
-15.6911 -190.358 43.319199
-19.2885 -224.036 43.606201
-13.4416 -197.237 43.378601
-17.492701 -190.71001 42.4426
-16.335199 -173.155 42.965199
-19.1136 -224.522 43.627399
-16.889 -184.83501 43.058899
-15.7961 -223.411 43.6763
-14.1738 -175.87801 43.2309
-19.1264 -231.355 44.053699
-19.749399 -205.864 43.510601
-15.9355 -192.231 43.626301
-14.7631 -206.145 43.4445
-13.6069 -217.457 43.819698
-14.056 -218.621 43.760502
-15.469 -193.96201 43.5975
-14.9611 -175.373 43.2253
-15.8003 -179.12399 42.944599
-17.712999 -193.951 43.852699
-16.7526 -176.47 42.9925
-16.3444 -171.938 42.965801
-15.2742 -173.67999 43.045101
-15.2538 -178.311 42.828701
-13.3627 -181.05901 42.708199
-15.7821 -163.761 42.814098
-18.0681 -220.772 43.7696
-15.2289 -201.14 43.297001
-19.133699 -222.778 43.642101
-14.1353 -230.832 44.074402
-16.895 -198.884 43.325199
-17.4447 -224.877 43.552898
-14.1501 -177.424 43.027901
-13.593 -206.685 43.543999
-19.1021 -215.82201 44.004002
-15.7986 -229.97099 44.0424
-14.4175 -207.98199 43.494099
-17.356501 -192.63 43.302101
-19.8915 -207.72701 43.544601
-20.799999 -227.705 43.764301
-16.2096 -164.33501 43.242802
-16.6775 -179.12 42.4925
-18.556801 -230.90601 43.8997
-17.4741 -224.342 43.474499
-17.472601 -221.392 43.691101
-15.22 -169.998 42.952202
-18.125299 -205.843 43.487801
-20.3951 -219.636 43.999199
-13.5851 -222.508 43.797298
-15.2108 -166.673 42.901798
-16.0252 -166 43.2957
-17.5592 -200.98199 43.3195
-16.0581 -167.05701 43.3074
-13.3675 -182.433 43.121899
-14.051 -216.849 43.744301
-15.2196 -164.23 42.819599
-14.1402 -226.14 43.698299
-18.2542 -202.939 43.201801
-19.694201 -224.38 43.6185
-15.1656 -165.972 42.880299
-19.7096 -203.36 43.521702
-14.1451 -225.461 43.694199
-14.5903 -218.59801 43.8447
-18.6985 -225.67799 43.680401
-16.9765 -182.408 42.862499
-14.5771 -212.608 43.531101
-13.5118 -200.44701 43.401001
-19.0378 -211.69099 43.544498
-14.3528 -180.963 42.711899
-17.454599 -181.15601 44.712299
-15.2937 -210.98199 43.7887
-16.4662 -173.20399 43.431599
-14.6878 -223.15401 43.742001
-16.2743 -225.078 43.571098
-13.5969 -230.218 44.069801
-15.8243 -177.119 43.084801
-15.5381 -218.047 43.6619
-15.0398 -195.7 43.593601
-17.612 -205.60699 43.521599
-18.568001 -219.20799 43.715099
-14.145 -230.314 44.061901
-13.6686 -230.731 44.075199
-20.2111 -233.01801 44.134201
-16.819201 -226.916 43.744301
-14.3204 -224.314 43.621899
-17.4627 -223.46001 43.4622
-20.1607 -232.526 44.084301
-19.0574 -201.509 43.620602
-17.221701 -175.36099 43.403702
-16.263901 -164.87601 43.293598
-14.4115 -178.30701 43.063301
-19.122299 -228.05499 43.869701
-16.3144 -194.476 43.3848
-17.8118 -203.198 43.452301
-16.9079 -221.756 44.012001
-14.4735 -189.963 43.2495
-18.7285 -216.38699 43.5919
-17.614901 -212.02699 43.5252
-16.996401 -179.998 41.7323
-14.6956 -225.396 43.678101
-16.8584 -174.752 43.638699
-15.7695 -165.423 42.8647
-16.808701 -223.60001 43.4734
-15.923 -179.595 42.582401
-17.8325 -215.991 43.576401
-18.5942 -209.20799 43.473499
-19.145599 -221.909 43.6847
-13.6018 -219.67101 43.910702
-14.69 -223.99699 43.714298
-20.082899 -206.25101 43.489899
-16.347401 -226.12801 43.5942
-14.1396 -214.271 43.589001
-16.605801 -173.98199 43.153999
-14.5534 -228.13 43.9683
-13.579 -201.75301 43.4203
-17.2453 -219.332 44.090599
-14.7001 -175.793 43.2533
-13.5758 -195.272 43.357899
-15.1003 -216.92599 43.738899
-17.967199 -206.90601 43.477501
-15.7115 -164.271 42.8367
-19.7001 -218.948 44.055698
-17.375 -210.799 43.5028
-13.5971 -227.61099 43.863602
-18.948099 -226.44299 43.627399
-15.9095 -229.47701 44.0168
-15.3201 -201.61301 43.265301
-14.5401 -225.862 43.711399
-15.7184 -222.814 43.602901
-14.8072 -185.271 43.188499
-19.110201 -218.67999 43.754601
-19.961901 -223.013 43.6203
-17.3762 -202.94299 43.424
-19.8248 -218.41299 43.865101
-14.0808 -198.856 43.375
-20.5019 -225.97099 43.617901
-19.955601 -217.77901 43.8769
-16.900101 -202.27901 43.400002
-14.3928 -176.96899 43.099899
-18.390301 -222.515 43.661701
-20.3904 -222.882 43.806599
-16.7302 -193.56799 43.375599
-16.651501 -178.293 42.812401
-13.8563 -206.25101 43.497601
-13.5757 -195.989 43.368401
-19.648701 -231.886 43.992001
-15.0968 -174.22301 43.091801
-19.2831 -229.23801 43.948502
-16.8888 -202.77 43.4039
-14.6776 -215.379 43.615799
-13.5429 -192.44 43.295101
-19.380699 -216.817 43.8727
-13.9625 -194.909 43.445999
-18.314899 -199.61301 43.320099
-16.466101 -184.59 43.023499
-16.353701 -219.30499 43.597599
-13.567 -172.474 43.535301
-14.1346 -222.688 43.758499
-13.9463 -171.45799 43.612099
-13.5825 -215.552 43.6674
-14.1105 -192.14 43.261902
-16.3708 -177.25101 43.025002
-19.139999 -204.73199 43.513401
-14.9676 -214.136 43.546299
-17.253599 -223.90401 43.480701
-15.7915 -227.252 43.666599
-15.6685 -213.379 43.8834
-17.436199 -190.082 43.317699
-20.891899 -201.978 43.374901
-14.5919 -164.23199 42.760899
-16.9035 -226.44701 43.685501
-15.2454 -216.146 43.687199
-15.0624 -172.94099 43.411098
-19.951599 -217.118 43.581001
-18.566099 -230.311 44.022999
-18.840401 -222.34 43.666199
-17.725599 -194.436 43.852501
-13.596 -205.55499 43.529099
-17.864 -195.989 44.432201
-16.871799 -193.084 43.3778
-20.1656 -224.76401 43.751999
-20.8111 -213.87 43.559101
-13.6687 -197.692 43.370998
-13.588 -224.717 43.709
-18.5651 -231.36099 44.060299
-18.2148 -199.35899 43.7607
-14.1416 -227.222 43.813999
-20.202801 -223.65401 43.805
-19.1099 -232 43.991402
-15.2415 -224.948 43.6301
-17.3354 -188.265 43.8302
-19.6721 -203.842 43.476898
-16.464199 -225.659 43.642799
-14.4942 -210.649 43.5201
-20.849899 -205.58099 43.466301
-19.189899 -205.864 43.543598
-14.6986 -169.334 42.873901
-18.556801 -219.851 43.6777
-18.608801 -205.60699 43.539902
-16.5907 -185.002 43.3927
-15.2684 -177.298 43.108501
-14.5697 -214.45599 43.679199
-13.893 -222.136 43.7612
-18.844999 -215.923 43.588402
-20.0424 -219.297 44.040199
-14.2724 -169.05 42.8764
-13.7322 -226.42 43.811199
-13.5539 -183.08 43.2379
-15.7952 -173.073 42.9478
-15.4656 -228.069 43.862301
-14.2283 -229.052 44.035599
-19.007999 -215.463 43.617199
-20.6133 -222.127 44.272499
-16.202801 -181.336 42.759201
-13.6136 -212.72301 43.626301
-16.904499 -207.22701 43.437302
-18.6968 -218.08501 43.769299
-17.2523 -191.035 43.3871
-15.3161 -175.689 43.2822
-17.714001 -179.25 42.698101
-16.353201 -231.02299 44.094398
-18.818001 -211.13901 42.669998
-14.9449 -223.60001 43.644699
-13.4591 -211.121 43.5797
-20.521299 -221.52901 44.067001
-17.341101 -187.19299 44.220501
-14.3053 -206.408 43.4688
-17.1061 -211.782 43.508701
-17.002001 -224.68201 43.5644
-14.9432 -224.448 43.605099
-13.4842 -214.353 43.735298
-13.4032 -173.407 43.212502
-15.2988 -167.60699 42.9436
-20.9867 -210.679 43.483101
-19.6616 -216.44701 44.037201
-15.0225 -218.34 43.7938
-20.364599 -208.49899 43.493999
-14.0499 -209.40199 43.524799
-15.8312 -167.633 42.859402
-14.7907 -202.64999 43.360699
-19.9247 -208.936 43.502399
-16.730101 -225.235 43.513599
-14.6255 -207.795 43.880501
-20.4617 -229.23599 43.679199
-14.053 -163.22 42.723
-18.5949 -224.55701 43.654202
-14.9994 -226.24699 43.736301
-14.2375 -194.498 43.3018
-14.4671 -222.35201 43.678299
-15.6338 -214.351 43.999599
-17.036301 -182.53999 43.797298
-13.2678 -221.245 43.8395
-18.328199 -216.048 43.5854
-18.547701 -207.65601 43.5411
-16.8633 -194.77699 43.400799
-20.8326 -203.078 43.4501
-19.268801 -229.73199 43.980301
-15.2297 -164.841 42.837101
-16.6057 -223.15601 43.5382
-20.822901 -216.03101 43.5298
-17.104099 -223.145 43.567799
-20.7374 -203.606 43.488998
-17.8246 -194.905 44.833599
-17.0089 -182.955 42.836399
-18.0868 -213.41499 43.577599
-17.289301 -187.25301 43.740299
-15.5507 -176.55299 43.2113
-16.627701 -169.269 44.8382
-17.295401 -203.539 43.468601
-17.937099 -202.698 43.475601
-14.7005 -173.48599 43.623299
-17.2108 -177.84801 43.322899
-17.0695 -178.03 42.856201
-14.9222 -191.972 43.441799
-17.747499 -200.545 43.3647
-14.2065 -185.403 43.222198
-13.8003 -223.539 43.711102
-14.1412 -226.692 43.789001
-20.7101 -225.235 43.659801
-14.9049 -178.321 43.1535
-18.631701 -205.136 43.6819
-17.8055 -196.12399 43.4104
-14.7246 -209.173 43.451199
-13.6857 -191.80299 43.27
-15.8968 -203.45 43.8008
-17.728701 -194.709 43.4347
-19.419001 -208.73199 43.5247
-14.5977 -176.517 43.270699
-14.7864 -213.414 43.923698
-17.8944 -197.737 43.401798
-16.158701 -164.056 42.8214
-14.8852 -197.646 43.412998
-20.978201 -203.812 43.929699
-15.8517 -216.162 43.885399
-17.6688 -193.578 43.556702
-17.2899 -187.588 43.315399
-13.9334 -164.98199 42.755901
-14.1483 -221.554 43.7505
-14.9071 -211.367 43.482498
-13.4862 -210.019 43.5532
-15.6358 -220.64101 44.045799
-19.7908 -211.85001 43.7565
-15.6025 -202.373 43.624699
-16.98 -196.004 43.3372
-15.3454 -175.368 42.929401
-14.4372 -203.511 43.3951
-13.439 -184.924 43.373901
-15.3434 -168.748 42.882599
-14.7373 -164.901 42.826698
-14.2443 -175.39101 42.859699
-15.8517 -180.849 42.655499
-14.9245 -222.493 43.678001
-20.0956 -210.464 43.4823
-13.3163 -183.543 43.480801
-15.1847 -211.756 43.462299
-16.2847 -178.354 43.123901
-18.569599 -223.577 43.597698
-19.885599 -219.746 43.9025
-15.1007 -215.142 43.587502
-15.4579 -211.315 43.442799
-16.2416 -192.769 43.6362
-15.5502 -219.438 43.994099
-14.4194 -183.144 43.055698
-17.1973 -184.67999 43.4002
-14.1923 -223.265 43.670502
-15.9803 -174.68201 43.144501
-14.7394 -207.276 43.460899
-15.5426 -211.842 43.828701
-15.7423 -194.298 43.347401
-17.497999 -209.75 43.702301
-16.036501 -176.442 43.280899
-19.6042 -222.76801 43.831699
-15.9467 -211.306 43.421799
-14.7495 -212.84599 44.003101
-19.8895 -225.205 43.6619
-18.0061 -223.29601 43.5392
-18.4946 -213.168 43.5667
-17.7617 -195.422 43.389301
-16.3634 -229.85201 44.039799
-16.209499 -164.927 42.805901
-17.231501 -185.218 43.540798
-20.6077 -219.20799 44.023102
-13.614 -207.2 43.598499
-19.8433 -223.908 43.608299
-17.8508 -186.412 45.0457
-13.3022 -175.34599 43.202
-17.7892 -221.742 43.8013
-16.2372 -168.98599 43.379398
-16.416201 -207.606 43.359299
-13.6627 -179.201 42.774899
-15.7491 -173.588 43.053799
-14.8642 -207.817 43.458698
-15.0238 -210.354 43.4492
-13.7627 -190.71201 43.641499
-20.0305 -220.515 43.965099
-17.533701 -222.93401 43.5425
-15.609 -178.237 43.151501
-16.089701 -163.26801 42.781898
-14.8704 -215.81799 43.621799
-15.8965 -178.629 43.202702
