# .PCD v0.7 - Point Cloud Data file format
VERSION 0.7
FIELDS x y z
SIZE 4 4 4
TYPE F F F
COUNT 1 1 1
WIDTH 1456
HEIGHT 1
VIEWPOINT 0 0 0 1 0 0 0
POINTS 1456
DATA ascii
-12.4772 -191.10699 43.306702
-9.1297903 -227.49899 43.882801
-11.9126 -172.367 42.993599
-8.9369001 -184.515 43.897598
-10.2743 -165.326 43.012501
-10.5746 -229.119 43.8792
-11.7462 -215.83099 43.707401
-11.7058 -183.033 43.322102
-12.1989 -227.974 43.882301
-7.4705901 -231.888 44.130501
-12.6829 -220.272 43.893299
-7.0527 -171.54601 43.106602
-9.7099895 -177.313 43.334301
-13.0319 -214.20599 43.662399
-9.7132597 -175.979 43.141701
-10.3152 -228.67599 43.885101
-12.4785 -182.27299 42.758801
-6.0244799 -170.96001 43.365398
-11.7529 -221.92101 43.821098
-9.6892204 -221.37601 43.933899
-13.0341 -213.217 43.624199
-11.335 -177.78101 43.325901
-9.5502701 -202.556 43.513
-7.2729301 -223.034 44.0858
-7.1072898 -215.117 42.411098
-11.6225 -226.349 43.755402
-11.9286 -192.326 43.398201
-8.0202103 -211.48399 43.879002
-6.96035 -215.02299 41.7603
-6.24506 -228.35201 43.878201
-8.5934401 -222.133 43.870499
-9.7280397 -205.061 43.945702
-8.6733398 -171.588 43.454601
-10.4005 -220.79401 43.8158
-9.1422901 -182.617 42.853199
-6.4217 -201.283 43.958302
-7.1009998 -188.30299 43.652901
-11.9296 -169.33701 42.944901
-11.3781 -186.117 43.547901
-5.6426902 -192.03101 43.722401
-7.0420699 -189.283 43.618301
-6.3917699 -224.19 43.847599
-10.6631 -184.83099 43.5541
-7.1392002 -169.02699 43.577599
-7.90237 -219.597 44.361698
-11.3765 -163.756 42.9002
-12.4812 -229.12801 43.9076
-5.8294902 -164.939 43.2463
-11.3777 -194.308 43.434101
-12.4746 -194.30701 43.416599
-10.2742 -166.233 43.0117
-10.5904 -226.903 43.7943
-10.2713 -183.147 43.337299
-12.4681 -183.166 43.350899
-7.5414901 -220.256 45.0271
-9.4912205 -200.89 43.477901
-10.822 -193.69501 43.426102
-7.5996599 -205.289 43.834301
-6.6451602 -224.69099 43.975601
-11.0119 -210.29601 43.589298
-11.2354 -211.959 43.6035
-13.0359 -208.758 43.5867
-12.4363 -165.989 43.359402
-6.21205 -183.063 43.322399
-8.4253302 -203.66299 43.704601
-9.81213 -226.912 43.7859
-11.9267 -182.19501 42.778999
-5.67909 -224.15401 44.060299
-11.6537 -193.13499 43.4165
-5.8007898 -188.78 43.7962
-7.5399799 -228.01601 43.854599
-7.5325899 -231.349 44.067299
-11.9251 -188.825 43.3629
-10.8248 -177.144 43.244099
-7.5395598 -227.134 43.9081
-12.4794 -219.21899 43.7971
-7.0257502 -179.843 43.368599
-5.6223302 -217.25 45.097099
-7.8456998 -191.487 43.445999
-9.91611 -220.99001 43.763901
-12.48 -192.341 43.354599
-9.1541204 -193.158 43.884499
-12.483 -225.84399 43.741001
-10.8138 -208.511 43.604301
-8.06213 -170.924 43.07
-7.1796799 -213.47 42.782501
-8.2357998 -206.998 43.807301
-6.1470399 -222.995 44.117401
-7.0055299 -209.748 44.123402
-9.6824598 -227.461 43.811798
-7.2460198 -210.33 44.0042
-8.9190302 -207.536 43.760601
-13.044 -204.466 43.544399
-10.5712 -181.509 42.893398
-9.7474499 -170.437 43.0378
-11.9195 -174.50101 43.051998
-8.6649799 -210.886 43.879101
-11.3696 -226.933 43.774101
-5.83461 -178.54401 43.2962
-12.4795 -179.763 42.681599
-10.2428 -177.211 43.3326
-7.7351098 -199.81 43.5952
-8.6165504 -177.145 43.235298
-7.5643001 -215.834 44.0168
-12.4212 -228.61501 43.8974
-7.6677699 -230.242 43.894299
-9.7396002 -223.14799 43.884701
-11.9276 -206.98 43.588299
-11.3716 -199.242 43.457901
-12.9976 -188.573 43.325199
-11.9264 -163.718 42.865398
-8.60184 -224.13499 43.831501
-11.922 -217.496 43.7257
-13.0211 -183.987 43.282398
-11.7857 -219.742 43.880901
-6.9221802 -225.797 43.9431
-13.0247 -202.892 43.4645
-7.4471102 -175.95399 43.2024
-9.9777203 -186.495 43.520901
-7.6128602 -189.285 43.544399
-8.6285496 -227.62601 43.875599
-6.8242998 -213.862 42.227402
-9.1612597 -167.173 43.026798
-9.1199598 -174.866 43.1385
-11.9255 -201.991 43.5163
-13.1914 -230.778 44.044601
-10.6144 -175.44701 43.3228
-9.20156 -227.019 43.855099
-5.9727001 -186.069 43.889599
-5.8093901 -170.339 43.316898
-8.0535402 -231.901 44.060501
-7.70997 -221.933 44.841801
-8.9224195 -182.067 42.929901
-7.39891 -228.582 43.872299
-8.2806301 -185.931 43.855999
-13.0307 -210.89 43.5835
-10.8195 -164.289 42.950901
-9.3557196 -227.931 43.929798
-11.9312 -189.853 43.374199
-9.1690197 -180.993 42.759602
-9.5730104 -207.53 43.6129
-10.8171 -193.15401 43.432899
-10.7603 -231.33501 43.979698
-8.6153202 -231.95599 44.027901
-8.3005304 -209.698 44.1143
-9.7134705 -200.353 43.472401
-5.9924102 -184.282 43.220001
-10.8173 -221.12399 43.836399
-8.3034401 -229.13 43.884899
-5.8871398 -228.02299 43.9259
-7.6258798 -217.013 44.4622
-11.9281 -214.73801 43.691002
-10.2556 -176.66901 43.323502
-11.1511 -196.45599 43.444901
-11.914 -221.366 43.8377
-12.4715 -184.487 43.4487
-9.9306297 -224.14101 43.769699
-6.4106998 -228.61 44.269199
-7.27947 -206.98399 43.895802
-11.9314 -182.866 42.915798
-9.1612797 -221.799 43.876701
-5.8246999 -189.35001 43.7328
-8.2834196 -186.455 43.878399
-12.4761 -180.381 42.6628
-10.8231 -178.40199 43.318501
-8.2926197 -207.535 43.830101
-13.0301 -207.636 43.5784
-7.4917998 -208.099 43.9356
-9.1681099 -222.62199 43.868401
-9.6494503 -222.474 43.8521
-9.4095602 -185.99001 43.884899
-11.9295 -227.502 43.790901
-8.6008301 -233.97 44.3461
-11.926 -180.33501 42.702499
-9.2259798 -175.422 43.135101
-10.9314 -228.56799 43.849499
-7.14013 -211.96201 44.0256
-10.2749 -164.533 42.998299
-10.818 -181.002 42.746101
-8.0006199 -192.592 43.426102
-5.8047299 -225.28101 43.878399
-5.8587799 -183.634 43.240799
-13.0353 -216.42 43.7211
-11.9117 -166.091 42.913399
-6.2415099 -189.84599 43.687599
-8.97721 -175.94299 43.3167
-9.4739399 -231.34399 43.9492
-13.0237 -163.74899 42.7691
-8.1405602 -211.968 43.885799
-9.7444201 -176.479 43.311001
-6.1907902 -231.886 44.617901
-12.4785 -209.757 43.591
-11.9357 -181.511 42.742901
-12.4873 -214.047 43.758202
-9.7249002 -178.179 43.2813
-12.4824 -183.867 43.285599
-7.7242999 -210.25999 43.902
-9.9618998 -226.358 43.7701
-9.1831598 -223.511 43.737099
-8.59517 -199.245 43.4519
-12.4791 -215.28999 43.6875
-7.4804101 -209.325 43.876801
-5.6919098 -201.467 43.840698
-10.2547 -221.41901 43.813
-12.2172 -218.599 43.762798
-10.9108 -188.15401 43.366798
-6.4244599 -184.83 43.626801
-7.9740901 -210.965 43.877399
-12.4581 -171.80499 43.314301
-7.6359801 -197.53 43.6516
-9.1442499 -187.82401 43.445499
-7.5251698 -215.78101 43.508499
-11.9286 -205.31599 43.542801
-11.8343 -225.79601 43.7346
-6.98598 -231.858 44.155701
-9.1107197 -176.52699 43.190601
-5.8893199 -179.209 43.099499
-8.1320601 -231.35001 43.987801
-11.3653 -203.672 43.506599
-5.7931299 -166.019 43.276901
-6.6222701 -222.44099 43.999901
-6.8066902 -187.76601 43.9095
-5.84517 -231.194 44.070301
-8.7069397 -216.39301 43.929298
-6.3088498 -214.66701 41.873501
-10.3386 -230.786 43.931
-7.16223 -198.091 43.7169
-6.28233 -225.798 43.873901
-8.0660801 -163.84 43.021702
-8.51478 -169.56799 43.379101
-6.5915899 -193.164 43.634399
-12.7376 -221.396 43.882599
-7.8074298 -224.69 43.864799
-7.7705898 -174.328 43.5154
-12.4875 -229.65601 44.030998
-9.71731 -224.71201 43.769798
-12.4384 -190.395 43.317699
-9.7301197 -164.34399 42.991199
-7.33042 -214.21201 42.1884
-11.414 -215.286 44.0368
-11.9381 -218.172 43.883202
-10.8263 -209.782 43.577801
-9.1408997 -174.369 43.1078
-12.2801 -219.83501 43.879501
-12.154 -223.028 43.790001
-12.4818 -204.778 43.533901
-7.8509598 -221.371 44.716499
-6.9312 -225.291 43.8783
-10.2053 -168.776 43.0578
-8.0559397 -166.00999 43.045799
-11.843 -231.33099 44.0331
-11.3791 -179.867 43.1745
-8.6122599 -164.936 43.026402
-8.7506399 -228.48399 43.878899
-6.9406199 -230.29601 43.889
-8.5964699 -167.737 43.4305
-6.95962 -209.255 44.298302
-6.7846298 -223.42 43.878399
-11.926 -201.51401 43.504101
-5.9678202 -226.347 43.8811
-7.2809701 -181.39799 43.271
-10.8227 -182.082 42.8279
-8.1999998 -180.405 43.239201
-11.1361 -230.782 43.965099
-11.3694 -195.392 43.449902
-8.4247198 -193.147 43.421501
-13.0327 -177.80499 43.153
-12.475 -185.146 43.567001
-5.6444302 -192.625 43.680302
-11.3613 -200.366 43.466
-6.4019399 -184.026 43.302799
-12.4794 -171.06799 43.3172
-9.1644201 -199.242 43.4561
-7.6299 -229.112 43.875801
-10.2687 -228.024 43.831299
-12.5497 -178.235 43.329601
-13.0399 -202.08099 43.473999
-11.7175 -204.20799 43.518799
-11.0349 -227.951 43.886398
-10.8231 -186.573 43.432499
-9.9242201 -185.388 43.6423
-12.4306 -177.605 43.337002
-12.5784 -175.67599 43.325401
-7.4867201 -188.021 43.526798
-10.3036 -195.90601 43.4338
-7.0980101 -207.715 43.304199
-7.8378301 -223.02901 44.0289
-11.3666 -174.42101 43.077599
-11.3723 -229.15601 43.882
-10.8221 -209.172 43.609001
-9.7185097 -182.121 42.874199
-6.96979 -232.90601 44.487
-5.8733401 -184.09399 43.6469
-5.6447001 -232.44099 44.370602
-9.7151403 -187.67 43.399899
-6.6213999 -188.22 43.722099
-8.3068895 -215.145 44.0271
-11.9411 -228.97701 43.873199
-8.4973898 -176.274 43.314701
-12.8604 -187.649 43.332001
-5.49189 -223.58701 43.943199
-6.7669401 -199.24899 43.7505
-5.94239 -171.534 43.349899
-9.2249298 -216.481 43.877102
-8.6098299 -180.612 42.761101
-7.1883998 -219.739 44.982498
-9.2899199 -232.44501 44.096802
-7.1736999 -199.797 43.7132
-7.4692602 -225.817 43.8745
-9.3881798 -215.884 43.8769
-10.8342 -204.742 43.608799
-7.89185 -209.811 43.875401
-13.0271 -166.06 42.832901
-8.0360003 -222.50101 44.073002
-11.2992 -215.631 43.721199
-8.3892202 -212.515 43.857498
-6.3516302 -179.29401 43.2948
-10.8228 -211.61099 43.6157
-6.1262999 -232.321 44.2061
-7.9661899 -224.14799 43.872898
-8.8927298 -230.798 43.923698
-10.2691 -198.743 43.458698
-7.72578 -232.786 44.440899
-12.9479 -185.862 43.3064
-7.2220201 -188.75999 43.5924
-12.2375 -208.08 43.587101
-12.775 -222.217 43.8899
-11.9296 -189.33701 43.374599
-9.98808 -179.29401 43.344601
-10.8213 -199.815 43.472698
-11.9703 -180.845 42.7584
-8.6441603 -223.241 43.885502
-6.3809199 -193.739 43.7066
-12.7385 -224.13499 43.737
-13.0316 -209.48599 43.581001
-8.4716997 -168.22099 43.096401
-7.2389798 -208.32001 43.459801
-7.7831202 -193.14799 43.502399
-10.2255 -184.27699 43.455799
-12.9634 -219.151 43.882702
-5.6778798 -226.813 43.863998
-9.2257004 -220.89 44.003601
-13.0263 -186.425 43.301998
-6.2017002 -183.694 43.582901
-11.4377 -222.476 43.813301
-7.0855498 -218.06 45.020199
-5.8028202 -166.57401 43.3036
-13.0308 -176.17799 43.022701
-11.3765 -181.80901 42.851601
-13.2341 -192.07201 43.322601
-11.3632 -168.021 42.979099
-7.05375 -227.408 43.874699
-11.88 -176.786 43.327499
-9.6994495 -202.06 43.5103
-8.8093204 -190.92799 43.4035
-8.4422598 -234.116 45.294899
-11.5098 -208.636 43.596199
-8.8040895 -172.677 43.397999
-11.9284 -197.076 43.447102
-7.4988699 -171.058 43.3979
-6.6411099 -229.12601 43.8694
-12.4567 -169.127 43.262001
-7.2059398 -206.48599 43.8783
-10.5276 -203.65601 43.890598
-9.3400402 -173.20799 43.111801
-7.3740501 -189.832 43.5648
-7.97507 -203.119 43.757401
-10.7113 -195.353 43.444599
-10.8199 -172.97099 43.083199
-12.2668 -166.645 43.302898
-10.8263 -174.914 43.114799
-9.7190905 -174.914 43.131001
-6.3892002 -166.032 43.223202
-11.9371 -183.485 43.355801
-9.6442604 -229.67101 43.897099
-9.7116699 -173.767 43.112
-10.4307 -227.459 43.806599
-6.2817602 -198.00301 43.909302
-13.0249 -170.07899 42.8778
-11.928 -194.856 43.444099
-11.9311 -209.196 43.590401
-11.1773 -176.489 43.322701
-12.4865 -182.56799 43.174
-11.3803 -223.564 43.732399
-7.5099502 -163.84599 43.019901
-12.4752 -180.772 42.941002
-12.9631 -165.912 43.2873
-11.3839 -228.342 43.875599
-13.0418 -216.927 43.791698
-11.9317 -179.828 42.701099
-10.0739 -194.26401 43.917
-11.9329 -230.214 44.0476
-11.9394 -177.89101 43.166
-9.2782898 -184.89799 43.880402
-5.8932199 -223.881 43.709999
-9.1496401 -199.78999 43.469299
-6.8898401 -228.69099 43.864799
-8.1482096 -219.071 44.1287
-10.1953 -206.985 43.8992
-8.6201296 -233.06599 44.450802
-11.2067 -189.25999 43.396599
-9.7021303 -210.05901 43.976398
-10.273 -207.575 43.6096
-7.0999599 -197.55901 43.710999
-7.5359502 -218.71201 44.9007
-11.8577 -182.411 43.325199
-5.78161 -189.826 43.817799
-13.0377 -174.244 42.952801
-13.0019 -190.963 43.331699
-10.8263 -166.30901 42.9772
-8.7251902 -207.04601 43.7458
-12.3877 -166.033 42.873901
-6.8552699 -214.49699 42.216599
-12.4798 -199.53101 43.437599
-9.6280003 -221.82201 43.751999
-12.5076 -163.825 42.8307
-9.1078196 -190.37399 43.391701
-11.9281 -207.55499 43.593399
-6.9899602 -170.95399 43.091499
-11.9255 -187.685 43.344101
-13.0335 -193.976 43.354801
-6.4414701 -171.53999 43.278599
-11.5397 -209.742 43.599201
-10.794 -205.867 43.944901
-6.6652002 -201.83 43.865898
-13.0348 -228.563 43.8451
-11.636 -216.939 43.719002
-6.3861899 -198.692 43.784599
-5.5752501 -228.567 43.915699
-10.8269 -177.72301 43.317299
-9.3125496 -184.278 43.380199
-6.8280201 -184.255 43.2808
-13.0289 -225.834 43.725201
-12.4782 -198.765 43.433399
-9.5703096 -209.188 44.080101
-7.6926899 -225.22701 43.8983
-11.3625 -200.923 43.4799
-9.4198399 -212.09399 44.2146
-13.0358 -180.353 42.7547
-9.1617899 -178.771 43.391602
-7.0620298 -216.936 44.9231
-9.6991501 -184.875 43.5597
-10.2625 -188.711 43.390301
-9.58321 -225.246 43.784
-5.9703398 -175.414 43.433701
-13.1819 -187.12 43.312302
-8.1385403 -217.493 44.0271
-10.645 -229.67 43.898201
-9.7778597 -211.959 43.6124
-12.7561 -186.89101 43.312901
-11.5345 -219.231 43.923
-10.0602 -225.22501 43.7355
-11.4414 -214.17101 43.934399
-7.9953599 -184.283 43.173401
-11.9223 -186.55 43.4226
-8.8359003 -220.23 44.034599
-8.9650698 -196.548 43.9245
-9.1564999 -179.92599 42.761398
-7.7245402 -216.39101 44.015202
-13.0448 -183.21201 43.2281
-9.1691198 -181.554 42.930801
-10.5167 -192.58299 43.4207
-8.4880199 -166.649 43.370701
-6.9948401 -202.43201 43.822601
-11.3758 -214.76199 43.6889
-8.4998798 -234.711 45.561699
-11.9362 -176.043 43.293098
-11.9298 -193.909 43.420898
-12.3601 -217.951 43.8717
-10.2492 -189.814 43.3843
-5.56845 -185.942 43.592201
-6.2477999 -186.41499 43.658901
-10.8209 -197.56599 43.455399
-12.409 -209.21201 43.575901
-8.6251602 -222.73199 43.8867
-7.0988302 -217.51401 44.6978
-7.4808898 -198.731 43.640099
-5.8375902 -163.823 43.207199
-8.7186899 -220.826 44.010799
-11.375 -191.588 43.365898
-12.4818 -207.536 43.596001
-7.0084701 -198.659 43.723801
-10.0018 -182.172 43.331299
-9.7083998 -198.082 43.4603
-9.1671 -170.511 43.042301
-11.3772 -191 43.373299
-12.4949 -217.411 43.851398
-10.9273 -227.39301 43.925098
-6.5123301 -186.97501 43.592499
-12.493 -164.416 42.8396
-10.0406 -202.46899 43.548401
-7.52068 -211.672 43.981998
-10.285 -202.882 43.553001
-7.9217701 -175.879 43.217499
-6.5950098 -214.18401 41.6679
-7.2257299 -230.679 43.933102
-8.2554998 -210.181 43.968899
-5.7008801 -199.354 43.781399
-7.9750299 -226.36099 43.878601
-8.2467203 -180.179 42.7724
-10.8263 -203.162 43.5425
-13.0294 -182.655 42.758499
-9.9581499 -183.72501 43.274601
-12.4822 -206.435 43.576599
-11.583 -186.91499 43.319199
-12.5402 -168.326 42.887199
-11.5377 -218.593 43.944599
-6.4628601 -176.53799 43.385399
-6.1940699 -221.144 44.9594
-13.0509 -181.245 43.0303
-13.0225 -199.62399 43.414299
-5.5142899 -168.8 44.5518
-10.8262 -188.741 43.3908
-9.2684298 -229.14 43.885601
-9.5291901 -186.66901 43.498402
-5.8656902 -179.81 43.354198
-9.3874302 -176.134 43.468601
-11.9357 -222.43401 43.695202
-12.9395 -182.134 42.727299
-13.0293 -178.431 43.211899
-7.6011 -223.586 43.9729
-9.72855 -183.29601 43.326801
-10.2548 -200.95599 43.490601
-7.5142202 -208.60899 43.9394
-6.2625198 -187.72501 43.822102
-10.1974 -197.00999 43.9021
-7.9598598 -198.34599 43.819901
-6.3827 -225.323 43.854401
-9.5598602 -228.51199 43.877998
-13.036 -215.907 43.710098
-11.3463 -212.481 43.974499
-6.92312 -184.871 43.552601
-9.7112799 -171.608 43.0536
-12.269 -216.38699 43.702702
-10.834 -174.117 43.168499
-8.5380001 -168.778 43.061199
-11.8117 -197.564 43.445301
-12.4768 -169.884 42.9077
-10.6635 -197.011 43.454102
-8.0342197 -200.89999 43.5952
-12.4734 -211.955 43.601898
-5.8646798 -181.869 43.557598
-8.1538601 -198.69299 43.5439
-9.1658297 -164.388 43.0005
-11.3861 -165.86501 42.9468
-7.3803201 -184.85201 43.416801
-10.2698 -198.158 43.4715
-11.8071 -220.285 43.8983
-10.2679 -203.401 43.5471
-6.7950702 -189.83501 43.613998
-12.72 -227.13699 43.891701
-10.125 -195.39301 43.904701
-8.2429705 -182.617 43.474098
-13.0281 -201.543 43.4622
-6.1636 -199.11 43.888302
-5.6574798 -177.10001 43.488098
-5.63692 -187.606 44.020302
-13.0766 -165.468 42.799801
-11.9275 -215.28101 43.715
-7.5389199 -213.05901 42.847801
-11.3799 -183.694 43.359402
-6.0000401 -190.40199 43.683102
-9.0144901 -185.407 43.580799
-12.4818 -193.77901 43.4011
-11.9157 -171.257 42.962799
-7.15347 -218.468 44.7495
-7.5041599 -164.384 43.023399
-11.1097 -210.82201 44.036499
-9.4778204 -185.561 43.630199
-11.3788 -180.89301 42.743099
-12.4812 -202.692 43.502899
-10.236 -179.726 42.764198
-13.0437 -207.106 43.561901
-11.3396 -220.927 44.178299
-8.6511898 -227.14999 43.866402
-10.8248 -179.892 43.189499
-7.9221201 -230.76401 43.876499
-10.2632 -185.94901 43.642799
-12.0086 -219.14301 43.8913
-7.4296799 -205.94701 43.837002
-9.7128801 -186.02299 43.475399
-8.9442301 -216.94 43.932899
-11.4052 -224.132 43.664799
-6.9937401 -200.34599 43.7309
-7.1953301 -229.646 43.875599
-6.3786502 -232.78799 44.3745
-8.3832703 -190.368 43.428699
-7.2744799 -204.616 43.8456
-7.87046 -182.948 43.1889
-10.0779 -194.82001 43.8936
-10.3344 -199.22501 43.468498
-12.456 -186.52901 43.403198
-12.7869 -226.35001 43.7341
-12.4858 -203.646 43.545898
-7.3994198 -200.912 43.692299
-9.7460299 -206.952 43.646801
-7.2533598 -220.838 45.020199
-6.44172 -200.342 43.782902
-13.0285 -203.698 43.478699
-8.7536697 -233.513 44.240799
-8.2179003 -216.388 43.9841
-12.2845 -187.02499 43.317101
-8.0597095 -171.416 43.060101
-13.0327 -212.561 43.612301
-10.7103 -187.048 43.383202
-10.8283 -207.77499 44.015301
-11.925 -199.78999 43.4771
-10.8267 -171.804 43.026501
-6.0380998 -217.474 45.1866
-11.9298 -204.77901 43.549801
-9.6562204 -175.42999 43.339901
-11.372 -166.381 42.946499
-9.19592 -177.83701 43.322399
-11.3748 -192.644 43.4231
-8.6210299 -184.606 43.430901
-9.8558798 -199.24699 43.473999
-12.9018 -180.873 42.721802
-9.7306805 -179.686 42.731201
-7.5592399 -222.46899 43.8675
-8.73526 -225.817 43.827999
-10.2697 -172.20399 43.069901
-13.0688 -194.771 43.379601
-8.0770502 -223.478 43.883598
-8.6171999 -166.06 43.0411
-12.478 -202.005 43.486599
-8.8921003 -178.36 43.1273
-11.8478 -202.545 43.4991
-6.40625 -192.076 43.622501
-9.7158098 -168.235 43.0397
-9.1630297 -177.108 43.211601
-7.7994099 -177.50101 43.581402
-6.4008698 -164.94099 43.1856
-7.6076899 -192.041 43.4678
-6.9218602 -228.021 43.8895
-11.3777 -178.433 43.362301
-6.9584298 -192.07899 43.545101
-10.1018 -175.259 43.331902
-7.95087 -166.62199 43.031799
-13.0191 -195.558 43.3857
-12.231 -181.409 43.111099
-9.2345104 -201.453 43.499001
-10.1012 -201.44701 43.504101
-7.6947498 -206.709 43.887001
-11.3734 -210.87199 43.578899
-10.8187 -179.698 42.735298
-7.39817 -215.61501 42.747601
-9.1192598 -183.729 43.212101
-12.4824 -188.81 43.314602
-10.8134 -201.50101 43.504501
-8.9222403 -200.338 43.462299
-9.7213202 -168.842 43.036098
-12.7986 -171.332 42.8913
-7.0005102 -176.10699 43.483398
-5.9151402 -176.543 43.4412
-11.9205 -167.328 42.927399
-10.8144 -194.841 43.438599
-9.1789198 -224.06799 43.664398
-6.2137098 -196.866 43.910198
-9.0237703 -180.40401 43.166901
-9.1802101 -207.063 43.5784
-11.1114 -225.244 43.7491
-8.9161301 -225.246 43.823502
-6.59234 -203.67101 43.8964
-7.4807401 -202.595 43.768002
-5.9130301 -182.478 43.397099
-8.9589596 -189.26401 43.396702
-10.8269 -183.767 43.303001
-11.3717 -205.92599 43.555901
-10.038 -192.591 43.415699
-13.1032 -189.201 43.312302
-7.7674198 -181.826 43.292702
-5.8450899 -227.536 43.890999
-13.034 -224.737 43.726101
-12.4817 -215.85201 43.714699
-10.8145 -184.33701 43.505299
-8.0700598 -228.57401 43.888901
-10.3721 -194.245 43.439098
-6.8979301 -164.90199 43.039001
-6.1715102 -226.78 43.8815
-8.6116304 -212.00301 43.822201
-9.2863798 -188.713 43.3867
-6.4700198 -197.563 43.7397
-8.2616196 -225.254 43.8507
-9.3507996 -169.33099 43.0509
-6.6693401 -232.392 44.206501
-10.2718 -169.905 43.032799
-11.942 -230.69701 44.037102
-12.4812 -186.024 43.5182
-8.1943798 -188.10001 43.865398
-7.93612 -225.718 43.751801
-10.8222 -169.564 43.012798
-5.70153 -224.58 43.759102
-6.4023299 -170.67599 43.266499
-10.2787 -166.952 43.073601
-8.6023998 -183.97301 43.7658
-12.412 -207.019 43.615101
-7.21208 -219.061 44.9296
-6.9065199 -216.38699 45.18
-8.4796896 -175.36501 43.159901
-8.2276402 -189.269 43.4053
-12.4884 -164.94099 42.8526
-6.6830401 -203.203 43.8853
-10.4437 -170.35001 43.034302
-5.6216998 -183.17999 43.062599
-7.0415301 -217.44701 45.4156
-9.4230404 -225.804 43.804001
-12.4976 -181.51601 42.721001
-11.9152 -175.53999 43.074001
-11.9497 -226.836 43.826
-12.8337 -183.55 43.498402
-10.0805 -231.88901 44.0037
-11.2111 -176.98199 43.475399
-12.4628 -178.78 43.321999
-9.7171001 -178.808 43.319199
-8.8422804 -219.151 44.1115
-11.9275 -199.239 43.4436
-10.8231 -164.868 42.969002
-10.1725 -216.343 43.754799
-8.7496595 -173.755 43.176701
-10.8247 -185.99899 43.569698
-11.5192 -187.437 43.379101
-7.9653502 -220.258 44.655602
-12.8113 -189.675 43.317799
-9.86759 -174.30901 43.260201
-11.4334 -213.10899 43.977001
-11.3754 -189.888 43.3895
-7.5711198 -207.61301 43.852501
-8.60958 -165.48 43.039398
-13.1033 -177.265 43.322701
-6.3024201 -223.65601 43.896999
-6.6996598 -198.28 43.7663
-6.3846798 -188.763 43.680099
-11.3704 -190.409 43.376202
-12.9855 -227.86301 43.889099
-9.7191296 -164.91299 43.0177
-7.7024202 -178.625 43.679699
-8.7121401 -180.105 42.855999
-11.4249 -221.326 43.843201
-11.377 -182.84801 42.954102
-12.6359 -220.813 43.837299
-10.2718 -180.96899 42.762001
-5.7325902 -188.05499 43.874901
-13.0342 -217.72 43.914101
-6.4071898 -164.457 43.187199
-11.357 -205.37801 43.535801
-11.939 -183.96899 43.3913
-8.0079803 -227.29601 43.862701
-11.9275 -196.53999 43.440102
-8.6175098 -170.45 43.065899
-10.5383 -216.73801 43.9506
-9.0888796 -181.071 43.323601
-12.2456 -179.287 42.772099
-11.3059 -203.202 43.591599
-10.8374 -224.53101 43.6852
-5.79462 -187.14999 43.776501
-8.6266098 -206.571 43.7649
-8.06005 -188.58701 43.4118
-11.1375 -187.733 43.361
-7.8256502 -220.82201 44.3764
-10.8172 -225.851 43.742599
-6.2810102 -217.049 44.983002
-12.4765 -195.908 43.412498
-7.0136299 -208.911 43.966202
-8.86901 -169.88499 43.064602
-12.108 -185.446 43.6241
-8.0512695 -165.48199 43.025501
-8.5811996 -174.545 43.165298
-8.5842104 -200.967 43.501202
-12.7463 -195.125 43.395
-9.7277002 -181.476 43.113098
-7.05197 -196.978 43.6917
-10.248 -191.476 43.379002
-11.4455 -218.089 43.852798
-5.8268299 -190.929 43.718102
-9.7215996 -171.086 43.050301
-10.7566 -207.528 43.602699
-7.4544201 -190.938 43.4851
-9.1656303 -171.60699 43.0755
-6.9439001 -163.851 43.0187
-10.2289 -187.105 43.387501
-7.0055399 -226.722 43.839802
-7.0812702 -222.592 44.1092
-9.6689997 -180.95599 43.002602
-8.0971003 -205.689 43.843899
-11.383 -206.41499 43.5961
-7.8207002 -229.664 43.8783
-6.0134902 -200.655 43.862099
-12.5272 -189.29401 43.3717
-10.5544 -211.989 44.055401
-12.4799 -198.287 43.4272
-5.7012 -167.925 44.430099
-11.9312 -170.117 42.9538
-11.3295 -197.58099 43.448502
-12.5488 -182.953 42.887501
-7.1932902 -226.272 43.879101
-11.1372 -181.383 42.761902
-9.7420797 -230.231 43.9076
-11.9175 -165.436 42.911301
-7.4804902 -217.207 44.889198
-6.46241 -217.909 45.0634
-10.2661 -188.175 43.387798
-11.3729 -182.22501 43.327999
-13.0205 -191.64101 43.303501
-12.4757 -200.00999 43.441002
-9.08249 -212.10001 43.795601
-10.2688 -173.30499 43.085899
-9.1682796 -166.04401 43.0256
-8.0642405 -199.16499 43.539101
-8.1271 -206.48199 43.7798
-10.8259 -163.79401 42.933899
-10.1016 -222.416 43.677502
-12.4931 -205.30099 43.594101
-5.8326302 -165.47 43.259399
-10.3212 -178.935 43.325802
-5.7059102 -173.627 42.730801
-13.0408 -229.11099 44.0415
-11.9171 -164.873 42.894402
-10.8157 -191.491 43.378899
-11.9558 -220.74899 43.882999
-10.9271 -180.549 42.8484
-6.5860801 -199.80499 43.785702
-6.5630698 -214.908 42.212002
-8.0072298 -232.455 44.183399
-8.6013098 -171.87801 43.0811
-10.8368 -205.267 43.601601
-7.6103501 -204.22 43.815498
-7.05092 -183.696 43.537601
-5.8775101 -193.011 43.9743
-7.95083 -189.827 43.430199
-8.3454103 -230.23199 43.895901
-8.0167103 -228.08701 43.920601
-11.6434 -217.48599 44.251202
-6.8713999 -221.056 45.272999
-12.7255 -171.86099 42.903
-12.476 -210.87399 43.579498
-13.1773 -179.894 42.793598
-11.7153 -208.196 43.578701
-11.9246 -213.07001 43.634998
-8.0772104 -221.92999 43.923901
-8.5548401 -235.21001 46.327999
-12.4781 -223.632 43.769299
-11.367 -202.582 43.506802
-8.5067396 -201.451 43.5448
-9.1272001 -179.284 43.161499
-11.3875 -168.849 42.963402
-11.9412 -181.793 43.132801
-8.9265299 -188.39799 43.385502
-11.2953 -230.23 43.932499
-10.9072 -226.32201 43.798302
-11.3755 -195.998 43.421299
-12.7172 -169.272 42.860401
-11.3759 -201.47501 43.517101
-10.7635 -200.33501 43.502499
-10.2757 -224.658 43.730099
-8.9123096 -168.407 43.030602
-12.4982 -177.08 43.345402
-12.6609 -228.207 43.9646
-13.0398 -210.19501 43.601601
-11.6268 -175.20399 43.338699
-12.4853 -204.287 43.633999
-13.0354 -219.75101 43.8381
-6.4816499 -227.46001 43.9384
-9.7383003 -209.58099 44.291
-8.4405699 -233.97 44.831501
-7.4282298 -184.37801 43.331402
-11.3658 -229.729 43.9104
-10.8234 -172.478 43.042198
-11.1106 -198.119 43.4482
-10.8277 -176.00301 43.313202
-12.4864 -173.18401 43.0173
-11.3787 -169.618 42.987999
-7.0537701 -210.86 44.009102
-6.8708901 -223.99899 43.8871
-12.489 -167.69701 42.908298
-12.1019 -217.03999 43.845798
-10.3406 -218.539 44.429001
-13.0511 -221.754 43.7868
-10.0304 -199.78 43.4729
-12.4759 -196.716 43.419899
-6.01965 -193.746 44.030499
-7.52349 -212.43201 43.953899
-8.4457998 -188.28799 43.401001
-10.7189 -206.97301 43.597099
-6.1518798 -199.603 44.046902
-5.7021098 -175.77901 42.427601
-8.6150398 -171.00999 43.070801
-13.0324 -229.707 43.9664
-11.3761 -227.565 43.8475
-11.635 -185.424 43.6772
-7.0967102 -190.39301 43.543499
-10.275 -187.64301 43.391102
-11.3703 -173.36 43.052101
-11.4558 -213.67999 44.077099
-6.39608 -163.80499 43.159199
-12.7729 -174.314 43.4063
-13.254 -176.493 43.319599
-11.9232 -225.304 43.707699
-8.3382502 -202.004 43.632
-10.125 -172.659 43.081001
-6.4510398 -196.479 43.735199
-8.7938995 -202.556 43.547901
-10.112 -211.60899 43.601398
-10.824 -179.323 43.285801
-8.6002102 -192.649 43.429001
-12.6899 -218.55701 43.871899
-9.2519903 -220.058 44.364899
-11.9556 -170.737 42.948601
-12.9793 -190.186 43.324299
-5.8341899 -168.384 44.435902
-10.7637 -206.49899 43.5746
-11.9376 -173.636 43.080799
-13.1559 -220.222 43.8615
-8.7128 -232.437 44.146999
-10.5973 -222.478 43.819599
-13.1212 -193.29201 43.3148
-9.6644697 -203.429 43.943699
-9.72264 -169.91299 43.029499
-10.2705 -178.213 43.319401
-9.5028095 -176.88 43.4711
-13.0383 -175.808 43.330601
-6.6234899 -222.97301 43.9697
-8.6283398 -215.853 43.962002
-13.0337 -211.567 43.594601
-5.96174 -200.04201 43.822701
-11.0888 -175.248 43.347099
-9.8291302 -169.399 43.037899
-10.2634 -193.72 43.440601
-6.98597 -179.718 42.899899
-9.6106596 -220.62601 43.903801
-7.5399098 -218.034 44.757599
-7.72577 -173.392 43.5247
-12.4784 -176.54401 43.319401
-11.1957 -206.939 43.5807
-13.205 -168.978 42.8657
-7.7851801 -218.504 44.318901
-6.8160901 -200.901 43.760502
-13.1212 -218.349 43.885799
-9.1652899 -198.40199 43.469601
-9.1607304 -192.646 43.3964
-9.9575901 -193.74899 43.895599
-8.5153904 -221.369 44.055599
-8.7885799 -198.71201 43.444199
-12.5194 -166.83099 42.8736
-8.8012304 -201.922 43.533298
-10.8264 -198.548 43.464298
-12.6736 -193.14101 43.380402
-9.3010702 -203.112 43.539398
-11.205 -179.446 42.855301
-11.415 -220.65401 43.7831
-12.4014 -165.505 42.871899
-9.2142096 -182.649 43.323502
-10.2664 -177.72501 43.323002
-8.0729904 -190.938 43.4039
-10.8233 -216.27499 43.726601
-8.4213696 -216.942 43.9856
-6.3192801 -190.95 43.647202
-8.7483702 -181.24899 43.018299
-10.2725 -171.573 43.073502
-6.5418801 -202.62601 43.837399
-12.1691 -210.295 43.572899
-6.7377501 -187.395 43.585999
-7.0883598 -207.048 43.318001
-9.1670399 -226.42799 43.819
-13.0268 -198.799 43.4077
-11.925 -168.543 42.9519
-7.5007401 -166.064 43.041801
-6.93996 -166.101 43.052601
-11.5368 -172.662 43.019402
-13.0896 -226.847 43.8055
-11.919 -198.731 43.460701
-9.16998 -163.806 43.0051
-10.9448 -183.161 43.343399
-7.97613 -215.589 44.042702
-11.9427 -224.605 43.6721
-11.899 -211.40199 43.5966
-6.4145799 -179.851 42.9422
-10.8253 -168.364 43.0187
-10.2735 -168.302 43.032398
-11.4275 -216.40199 43.820801
-13.1846 -181.677 42.7533
-12.3135 -192.789 43.4123
-6.9331298 -203.948 43.3433
-10.2916 -179.289 42.976002
-11.4038 -180.423 42.823502
-9.7299204 -166.96899 43.086899
-11.3224 -224.69 43.744202
-6.1254401 -193.30701 43.691101
-7.9362502 -176.17101 43.605
-9.9807701 -229.142 43.876801
-10.2727 -182.66901 42.867199
-11.9192 -195.92 43.437599
-12.2321 -221.87399 43.7985
-13.1149 -220.772 43.8218
-9.1808901 -166.547 43.072201
-6.9216599 -231.33701 44.088501
-8.1518898 -169.427 43.052601
-11.379 -179.061 43.319401
-7.0181899 -206.65199 42.9953
-8.07477 -221.105 43.994999
-7.1092901 -168.2 43.548901
-9.6065102 -230.786 43.9244
-8.6521902 -189.823 43.426998
-6.1594701 -188.342 43.849201
-13.0277 -192.80299 43.3414
-10.6756 -196.519 43.444698
-13.0345 -230.23 44.011002
-11.1643 -223.028 43.790199
-12.4098 -230.799 44.0714
-10.8224 -165.47099 42.965698
-13.0337 -225.248 43.7024
-11.9283 -188.314 43.362801
-6.3847299 -189.34599 43.676102
-5.7946601 -225.78999 43.977501
-12.482 -197.81 43.4184
-6.95926 -208.01199 44.116001
-7.6840401 -213.00101 43.949902
-10.8162 -211.10699 43.6768
-10.1931 -196.522 43.437199
-9.0357704 -232.989 44.195599
-11.927 -178.823 43.314201
-10.7257 -189.28799 43.393501
-11.3772 -171.908 42.987801
-9.9044104 -194.84 43.446301
-12.8394 -179.446 42.639999
-6.87988 -229.37399 44.226398
-6.3676701 -230.785 44.026199
-7.79813 -207.186 43.833401
-12.4752 -188.27699 43.3391
-6.56357 -183.51601 43.292702
-6.0521898 -184.933 43.316299
-7.5258698 -187.702 43.9561
-7.3826199 -232.45799 44.216
-10.8202 -223.633 43.767101
-8.6013098 -203.127 43.6768
-9.0568399 -224.696 43.786999
-5.5228 -185.38499 43.526901
-10.2777 -176.022 43.313499
-10.1318 -225.804 43.778198
-12.4907 -181.842 43.108501
-7.2227302 -191.493 43.507702
-9.7238703 -180.286 42.803799
-9.1604996 -183.202 43.032902
-6.99301 -193.70399 43.648399
-8.60672 -167.108 43.175499
-11.1626 -208.174 43.584599
-9.2881498 -167.636 43.078701
-13.0338 -198.32001 43.394402
-8.2435503 -192.04401 43.406601
-6.9872799 -174.358 42.972599
-12.5272 -227.62801 43.854599
-10.8268 -171.05 43.016499
-7.3983898 -214.673 42.304001
-6.0815101 -176.05299 43.403
-7.6370702 -219.245 44.692001
-12.4834 -211.422 43.603199
-9.4949398 -187.048 43.891399
-9.7028399 -192.092 43.391399
-6.4391699 -231.3 44.102402
-10.0819 -193.13901 43.413101
-8.62994 -211.40601 43.814701
-9.4284601 -189.82401 43.3895
-12.4724 -174.634 43.011799
-6.3867698 -175.651 43.385601
-11.7744 -184.409 43.532299
-7.3558698 -224.132 43.880798
-10.6875 -176.673 43.540298
-7.7202401 -190.379 43.491699
-11.92 -190.371 43.369701
-5.9919801 -231.866 44.1572
-5.8386898 -182.944 43.611401
-5.8392601 -164.403 43.2458
-8.66677 -188.81 43.4035
-8.6146498 -231.22 43.979599
-9.2405901 -233.46201 44.222599
-10.3867 -170.87 43.056702
-10.2813 -180.424 42.721699
-12.1911 -178.623 42.956402
-12.3946 -187.786 43.322498
-12.3015 -195.308 43.4189
-5.5093002 -180.32201 42.769299
-12.9108 -174.776 43.139801
-8.8448296 -167.924 43.0495
-13.0281 -184.608 43.412399
-11.9313 -184.953 43.586102
-11.3742 -188.787 43.388199
-8.5176201 -191.487 43.403999
-7.6403799 -198.021 43.6478
-11.9285 -164.28 42.8741
-5.77985 -174.664 43.167301
-9.1626596 -202.248 43.509899
-8.1993599 -202.55 43.740501
-9.6300001 -190.92599 43.389
-10.8425 -221.905 43.7346
-11.2583 -175.698 43.3078
-5.6568899 -180.728 42.9799
-10.5546 -204.34599 43.612301
-11.849 -228.356 44.0341
-10.8337 -182.57899 43.243099
-8.6147604 -226.35699 43.848801
-10.2622 -197.575 43.451801
-8.8361101 -173.259 43.4021
-11.8749 -224.138 43.762402
-13.1206 -185.481 43.5644
-7.54212 -210.76601 43.951
-11.7264 -212.511 43.681801
-10.307 -174.129 43.167099
-9.9887304 -232.446 44.114601
-11.4112 -211.39999 43.6465
-5.87289 -222.467 44.019199
-6.5587902 -190.384 43.617001
-7.9236002 -175.397 43.053501
-6.6217098 -227.002 43.8778
-9.6674299 -198.677 43.461498
-8.4920301 -229.675 43.911499
-9.7086 -193.75101 43.445301
-10.7883 -203.86501 43.548901
-7.2558198 -220.395 44.6646
-12.2994 -191.549 43.3344
-12.49 -208.534 43.564602
-13.0301 -206.088 43.555302
-13.0409 -206.58299 43.557999
-7.7739201 -203.679 43.780899
-13.0334 -176.845 43.0597
-6.1722202 -224.737 43.879902
-9.1656303 -172.73199 43.092098
-10.3888 -183.73599 43.495899
-9.7781496 -203.01401 43.5308
-11.3689 -171.158 42.988201
-11.9364 -168.02499 42.935398
-9.7704802 -184.121 43.4935
-11.3693 -198.687 43.472
-9.0699701 -203.539 43.547501
-12.4895 -175.19 43.223999
-9.6571999 -192.916 43.4109
-10.8432 -170.088 43.021599
-13.0217 -200.448 43.421799
-8.0892897 -208.08501 43.8554
-7.1713099 -203.677 43.841099
-9.9570904 -231.216 43.975201
-9.1533499 -229.683 43.894001
-10.1397 -223.58501 43.786098
-10.8121 -201.998 43.5117
-11.3876 -167.073 42.9478
-8.6159401 -163.828 43.0186
-10.8103 -192.028 43.3867
-11.4503 -194.783 43.437199
-5.8576498 -184.573 43.652199
-7.1755199 -224.597 43.8839
-8.3967304 -224.703 43.811199
-9.6739902 -193.05701 43.905701
-8.3959904 -184.054 43.294201
-9.7307701 -166.00301 43.0168
-11.9258 -186.04401 43.5513
-11.9371 -214.131 43.744202
-11.2556 -213.465 43.6623
-9.8867903 -216.69701 44.139198
-6.0275302 -163.327 43.176701
-11.8987 -200.88499 43.491699
-7.8854399 -184.573 43.769798
-11.3034 -209.19501 43.594002
-9.1055002 -170.998 43.044399
-6.9735198 -212.976 42.387299
-10.8236 -189.845 43.391701
-11.3599 -207.528 43.602001
-7.6606798 -183.701 43.661701
-10.359 -223.02901 43.791401
-12.2252 -180.095 42.985001
-11.388 -178.716 42.973202
-7.3467798 -203.121 43.8008
-11.9274 -200.39999 43.467098
-8.0886497 -220.493 44.0107
-11.8973 -191.80701 43.386501
-5.5900302 -200.927 43.815102
-6.56144 -226.2 43.791
-12.4822 -201.058 43.497799
-9.1491404 -191.55 43.382301
-7.49547 -192.528 43.513
-5.91607 -230.595 43.938
-12.6082 -222.895 43.690701
-12.4788 -212.552 43.601002
-12.4816 -200.58099 43.4716
-11.9235 -212.002 43.599201
-10.3202 -219.382 44.391399
-12.5597 -178.94099 42.8759
-11.4106 -184.112 43.617699
-8.0595198 -164.418 43.0098
-12.4794 -172.709 42.969898
-11.5255 -181.452 43.129501
-12.7004 -180.05701 43.045502
-11.7618 -229.47301 44.071602
-8.7932301 -228.993 43.877998
-10.822 -199.045 43.4669
-11.7153 -177.479 43.323101
-9.7043505 -196.73801 43.442402
-5.5532198 -191.521 43.736801
-7.8408198 -193.31799 44.0924
-12.92 -173.377 42.978802
-8.7648897 -169.34599 43.033401
-11.9329 -213.56599 43.739399
-11.4666 -176.127 43.207298
-8.9900198 -193.134 43.419899
-9.5871096 -205.634 43.891602
-7.3480802 -199.24699 43.673
-10.4412 -226.451 43.8302
-5.7607198 -174.10201 42.943802
-6.6788402 -217.313 45.135201
-7.0419502 -192.67 43.556599
-8.8824396 -177.489 43.439899
-11.93 -171.856 42.986401
-6.5497699 -192.595 43.605701
-5.9381499 -185.39301 43.762001
-11.9302 -206.45 43.5928
-12.4154 -201.53101 43.4772
-6.0956802 -220.224 44.9478
-7.9701099 -188.12 43.364799
-12.5014 -205.825 43.643101
-12.3976 -214.793 43.820499
-11.9384 -205.90199 43.599701
-9.1505003 -187.10201 43.402901
-8.7585201 -215.3 43.9828
-9.1682796 -168.83 43.058701
-8.3921604 -167.53 43.052299
-11.9291 -203.758 43.5201
-11.3766 -197.09 43.433601
-6.9345698 -213.118 41.868301
-12.4649 -173.93401 42.999901
-7.9783602 -221.82899 44.426998
-9.7284098 -179.151 42.953098
-10.8257 -190.442 43.372501
-12.4967 -170.44299 42.900799
-10.5639 -225.133 43.756302
-10.1855 -184.879 43.580002
-7.5034299 -164.991 43.045399
-9.1671305 -164.91299 43.015301
-8.6147604 -164.35699 43.0005
-12.309 -167.187 43.182701
-11.3765 -199.808 43.485199
-6.95678 -165.547 43.057201
-10.5646 -173.67799 43.163601
-7.2100902 -201.47 43.708401
-10.8324 -166.968 42.993401
-9.4347496 -216.858 44.303001
-13.0429 -208.174 43.566799
-7.2260799 -213.55299 42.202702
-10.817 -185.442 43.6618
-5.57201 -186.625 43.880798
-8.5024204 -198.116 43.456001
-11.3708 -164.89799 42.938801
-7.6989999 -202.004 43.703999
-7.5784302 -179.938 43.318901
-13.0339 -201.002 43.449299
-11.3751 -202.02699 43.513401
-12.3324 -168.47 43.3325
-8.8783302 -174.13499 43.440399
-12.4022 -225.347 43.7528
-9.7161999 -187.118 43.398602
-13.0321 -197.57201 43.3965
-12.9553 -215.317 43.729301
-10.2592 -190.923 43.388699
-9.6806402 -182.75101 43.256699
-9.81497 -189.265 43.397598
-11.851 -178.349 43.323799
-12.8617 -175.424 43.0284
-8.7729397 -172.164 43.4394
-11.9303 -203.21899 43.531101
-6.42065 -175.116 43.544102
-11.1981 -185.67599 43.493301
-12.8449 -167.26801 43.214802
-10.765 -190.92101 43.376598
-10.2875 -167.733 43.058498
-10.2643 -200.355 43.4837
-10.7357 -215.767 43.775101
-11.376 -170.64101 42.988602
-9.7178097 -191.513 43.3932
-12.3432 -224.875 43.698101
-9.0525703 -231.76199 43.989799
-6.8775501 -190.944 43.5765
-8.6382799 -219.66701 44.0438
-10.5007 -230.224 43.922298
-8.1595097 -219.87801 44.072102
-6.3775702 -185.32401 43.545502
-10.1667 -181.67999 43.0882
-11.0794 -216.72301 43.743801
-12.4832 -197.20799 43.462601
-6.9758701 -215.32201 42.8274
-5.8716602 -218.62601 45.227402
-11.374 -164.278 42.914101
-10.7411 -167.55901 42.997898
-9.6739902 -188.155 43.390301
-8.6653204 -214.757 43.9697
-13.2192 -227.321 43.885201
-9.3188295 -182.017 43.195801
-12.9255 -185.07401 43.400398
-9.7131996 -190.40601 43.3927
-7.6143699 -217.31799 44.095402
-7.2582598 -230.18201 44.226501
-11.6389 -174.013 43.109901
-10.2693 -192.035 43.402302
-6.6529799 -191.50101 43.6031
-9.9484901 -211.992 44.117298
-11.3725 -192.117 43.4109
-9.1639996 -165.478 43.031101
-13.0283 -196.36 43.405102
-13.0127 -197.02699 43.405399
-10.8336 -168.881 42.999401
-10.1257 -229.649 43.956902
-8.8132401 -170.534 43.507599
-8.0602198 -164.957 43.012699
-11.3779 -184.67599 43.540001
-12.3778 -172.24001 42.955399
-10.8157 -200.92799 43.493301
-9.7537298 -167.75 43.072399
-6.2680302 -167.95599 44.417801
-9.2944002 -172.099 43.086498
-11.3142 -174.901 43.106998
-11.8451 -195.444 43.428799
-10.1711 -174.791 43.2402
-11.1628 -185.097 43.627499
-7.8446898 -201.46001 43.638599
-7.1539102 -216.032 42.873901
-5.7610202 -223.19901 43.860802
-9.2619305 -211.479 43.856998
-12.8551 -223.34399 43.696701
-10.6447 -213.63 44.0821
-12.4222 -203.166 43.537201
-13.0332 -214.813 43.672798
-12.9462 -212.05299 43.642502
-10.2137 -195.36501 43.433601
-11.2261 -179.944 42.702099
-7.18819 -193.15199 43.587601
-8.9103003 -179.711 43.113899
-6.4843001 -182.765 43.584202
-12.2246 -193.37601 43.403702
-8.1328001 -214.69501 44.0009
-11.8571 -210.84599 43.610298
-6.9566002 -164.34801 43.0672
-13.0454 -205.599 43.527802
-8.9626999 -192.045 43.382198
-6.7746201 -229.855 43.974701
-10.3749 -222.03101 43.751701
-8.9931002 -221.386 44.043499
-11.1702 -212.894 43.639
-9.2438402 -180.442 42.742001
-9.5749197 -232.05901 44.0289
-7.6626501 -217.91299 44.311401
-6.0071101 -194.254 44.216599
-12.0004 -208.69099 43.625401
-11.3756 -193.571 43.4258
-7.4809999 -165.483 43.0481
-11.2953 -165.392 42.953701
-6.1156101 -191.5 43.680599
-10.1654 -195.90199 43.911598
-7.4464798 -180.159 42.918301
-12.0897 -190.828 43.353199
-10.3005 -169.29401 43.032299
-12.018 -174.957 43.2178
-11.218 -167.519 42.9575
-10.2473 -182.189 42.9212
-13.1925 -179.131 42.742298
-9.7170601 -165.504 43.011002
-6.3878899 -165.54601 43.2062
-10.9136 -194.19901 43.449699
-9.9081898 -194.35899 43.449902
-10.2748 -190.37199 43.3923
-9.18291 -230.323 43.974899
-11.9268 -198.185 43.445099
-11.8998 -191.287 43.3769
-12.3525 -168.776 42.878101
-10.5193 -206.073 43.603001
-9.64816 -172.68401 43.1129
-5.5854602 -175.105 43.163502
-8.22402 -200.343 43.554199
-7.0276999 -166.97 43.152302
-8.4147196 -199.79201 43.517799
-7.56531 -200.36301 43.651001
-11.8561 -223.65401 43.674999
-12.348 -171.498 42.946201
-12.2551 -167.61 43.3983
-11.94 -166.58099 42.908798
-6.5328498 -230.565 44.421101
-12.5266 -216.812 43.821499
-10.5594 -202.49001 43.514801
-12.4222 -194.78 43.452499
-11.3826 -225.638 43.719299
-8.6855097 -178.81599 43.421101
-7.4991598 -170.623 43.0676
-9.6540003 -216.33501 43.7234
-9.96698 -220.217 44.466301
-11.3764 -188.274 43.385201
-12.4097 -230.259 44.0508
-11.6472 -179.274 42.899399
-6.9976501 -208.439 43.891399
-11.1907 -204.133 43.591801
-11.6384 -223.019 43.740002
-7.3912101 -213.302 43.231201
-8.4031801 -230.785 43.924
-9.7791901 -188.63901 43.374298
-6.3596101 -196.058 44.011799
-11.6685 -210.205 43.619499
-11.9306 -173.093 43.007702
-13.0855 -222.894 43.689301
-12.4869 -213.556 43.707001
-10.1312 -164.061 43.023701
-11.3826 -204.75 43.595699
-12.166 -226.408 43.796501
-10.3906 -180.09399 43.048
-7.11976 -187.698 43.533401
-11.1822 -173.799 43.099098
-7.5671301 -219.812 44.701302
-7.9015198 -216.916 44.044998
-12.3971 -213.02299 43.746399
-6.08957 -192.433 43.664398
-11.3268 -170.114 42.980999
-9.8291502 -166.507 43.019901
-7.1268101 -211.332 43.981998
-12.6182 -173.575 43.304501
-10.9319 -195.82201 43.4585
-10.8452 -181.804 43.217701
-7.8523402 -210.82899 44.3256
-12.9425 -213.698 43.754398
-7.4972401 -226.64999 43.870998
-9.8948898 -179.92101 43.1511
-10.3371 -201.92599 43.520599
-11.034 -209.369 43.996399
-7.49333 -218.257 45.178299
-8.1401796 -226.84 43.8223
-10.8328 -178.78 43.0131
-7.5836601 -171.438 43.0774
-10.901 -170.562 43.026299
-8.5153198 -179.502 43.367001
-12.3678 -176.11099 43.088001
-9.5452404 -216.86099 43.791302
-8.5666399 -208.032 43.814701
-8.8664503 -217.325 44.276798
-8.1719999 -197.91701 43.7453
-10.4354 -224.20799 43.687801
-12.8993 -205.017 43.607498
-9.7737598 -197.60201 43.466
-7.1886301 -201.998 43.7416
-9.7972603 -172.142 43.067501
-12.0104 -209.845 43.573101
-12.9608 -178.90401 43.144798
-9.2270298 -173.888 43.165501
-9.0906496 -184.69501 43.462799
-10.4295 -165.77699 43.008999
-7.39539 -216.653 44.710999
-12.9347 -164.601 42.794998
-11.107 -182.466 42.850899
-9.1370497 -219.774 43.994499
-9.6319304 -223.748 43.760399
-10.3695 -185.45799 43.4813
-6.1069999 -194.14301 43.746201
-11.1736 -211.88699 44.0858
-6.3053598 -178.78799 43.297501
-6.4868598 -231.77 44.173199
-12.0007 -194.384 43.4175
