# .PCD v0.7 - Point Cloud Data file format
VERSION 0.7
FIELDS x y z
SIZE 4 4 4
TYPE F F F
COUNT 1 1 1
WIDTH 1595
HEIGHT 1
VIEWPOINT 0 0 0 1 0 0 0
POINTS 1595
DATA ascii
-0.89608997 -0.48734 -1.5448
-0.89350998 -0.48776001 -1.5461
-0.88857001 -0.48684999 -1.5433
-0.88410997 -0.4862 -1.5412
-0.88106 -0.48635 -1.5417
-0.87801999 -0.48649001 -1.5421
-0.87590998 -0.48717001 -1.5443
-0.87194002 -0.48677999 -1.543
-0.8689 -0.48692 -1.5434999
-0.85477 -0.48065001 -1.5236
-0.77912003 -0.48480999 -1.5368
-0.77866 -0.48653001 -1.5423
-0.77524 -0.48633999 -1.5417
-0.77350003 -0.48725 -1.5445
-0.77051002 -0.48732999 -1.5448
-0.76380002 -0.48493999 -1.5372
-0.71678001 -0.45568001 -1.4445
-0.71438998 -0.456 -1.4455
-0.75608999 -0.48598999 -1.5405
-0.75432998 -0.48688 -1.5434
-0.75094002 -0.48666999 -1.5427001
-0.74795997 -0.48673999 -1.5429
-0.74539 -0.48708001 -1.544
-0.74281001 -0.48741999 -1.5451
-0.73943001 -0.48721001 -1.5444
-0.73645002 -0.48727 -1.5446
-0.73268998 -0.48677999 -1.543
-0.72972 -0.48683 -1.5432
-0.72753 -0.48743999 -1.5451
-0.72456002 -0.48749 -1.5453
-0.72119999 -0.48727 -1.5446
-0.71823001 -0.48732001 -1.5448
-0.71565002 -0.48763999 -1.5458
-0.71192002 -0.48714 -1.5441999
-0.70896 -0.48717999 -1.5443
-0.70561999 -0.48694 -1.5436
-0.70227998 -0.48671001 -1.5427999
-0.6997 -0.48701999 -1.5438
-0.69712001 -0.48734 -1.5448
-0.69454002 -0.48765001 -1.5458
-0.69121999 -0.48741001 -1.545
-0.68788999 -0.48716 -1.5443
-0.68457001 -0.48690999 -1.5434999
-0.68014997 -0.48582 -1.54
-0.67905003 -0.48725 -1.5445
-0.67684001 -0.48783001 -1.5464
-0.67352998 -0.48756999 -1.5456001
-0.67022002 -0.48732001 -1.5447
-0.66728002 -0.48734 -1.5448
-0.66469997 -0.48763001 -1.5458
-0.66175997 -0.48765001 -1.5458
-0.65917999 -0.48795 -1.5467
-0.65623999 -0.48796001 -1.5468
-0.65331 -0.48796999 -1.5468
-0.65107 -0.48853999 -1.5486
-0.64814001 -0.48855001 -1.5487
-0.64415997 -0.48771 -1.546
-0.64089 -0.48743001 -1.5451
-0.63761997 -0.48715001 -1.5441999
-0.63436002 -0.48686999 -1.5433
-0.63143998 -0.48686999 -1.5433
-0.62853003 -0.48686999 -1.5433
-0.62661999 -0.48771 -1.546
-0.62336999 -0.48741999 -1.5451
-0.61944997 -0.48655999 -1.5424
-0.61688 -0.48684001 -1.5432
-0.61396998 -0.48683 -1.5432
-1.1212 -0.48603001 -1.5465
-1.1174999 -0.48607001 -1.5466
-1.112 -0.48537001 -1.5444
-1.1072 -0.48491001 -1.5429
-1.1023999 -0.48445001 -1.5415
-1.0980999 -0.48423001 -1.5408
-1.0961 -0.48500001 -1.5432
-1.0901999 -0.48403001 -1.5401
-1.0876 -0.48455 -1.5418
-1.085 -0.48506999 -1.5434
-1.0824 -0.48559001 -1.5451
-1.0799 -0.48609999 -1.5467
-1.0756 -0.48587 -1.546
-1.0697 -0.48486999 -1.5427999
-1.0671999 -0.48537999 -1.5444
-1.0646 -0.48589 -1.546
-1.062 -0.48640001 -1.5477
-1.0589 -0.48664999 -1.5484999
-1.0525 -0.48539001 -1.5445
-1.0488 -0.48537999 -1.5444
-1.0452 -0.48537999 -1.5444
-1.0415 -0.48537001 -1.5444
-1.0395 -0.48611 -1.5468
-1.0358 -0.48609999 -1.5467
-1.0326999 -0.48633999 -1.5475
-1.028 -0.48581001 -1.5458
-1.0243 -0.48579001 -1.5457
-1.0223 -0.48653001 -1.5481
-1.0171 -0.48574001 -1.5456001
-1.0118001 -0.48495001 -1.543
-1.0082 -0.48491001 -1.5429
-1.0046 -0.48488 -1.5427999
-1.002 -0.48535001 -1.5443
-0.99787003 -0.48506001 -1.5434
-0.99269998 -0.48425001 -1.5408
-0.99168003 -0.48548999 -1.5448
-0.98909998 -0.48594999 -1.5463001
-0.98651999 -0.48642001 -1.5477
-0.98290002 -0.48637 -1.5476
-0.97930002 -0.48631999 -1.5474
-0.97569001 -0.48626 -1.5472
-0.97056001 -0.48543 -1.5446
-0.94564998 -0.47452 -1.5099
-0.86925 -0.43720999 -1.3911999
-0.93961 -0.47488999 -1.511
-0.95468998 -0.4844 -1.5413001
-0.95212001 -0.48484999 -1.5427001
-0.94805002 -0.48451999 -1.5417
-0.82981998 -0.42466 -1.3512
-0.90640002 -0.47678 -1.5171
-0.91602999 -0.48374999 -1.5391999
-0.91443002 -0.48471001 -1.5423
-0.91283 -0.48565999 -1.5453
-0.90928 -0.48556 -1.545
-0.90526003 -0.48519 -1.5438
-0.90173 -0.48508999 -1.5434999
-0.89915001 -0.48550999 -1.5448
-0.89561999 -0.48539999 -1.5445
-0.89398998 -0.48635 -1.5475
-0.88857001 -0.48517999 -1.5438
-0.88551998 -0.48532999 -1.5443
-0.88200003 -0.48521 -1.5439
-0.87848997 -0.48508999 -1.5434999
-0.87590998 -0.48550001 -1.5448
-0.87239999 -0.48537001 -1.5444
-0.86796999 -0.48471999 -1.5423
-0.86124003 -0.48273 -1.536
-0.75217998 -0.46574 -1.4819
-0.77781999 -0.48432001 -1.5411
-0.77649999 -0.48548999 -1.5448
-0.77433002 -0.48611999 -1.5468
-0.77174997 -0.48648 -1.5479
-0.76626998 -0.48492 -1.543
-0.72377998 -0.45875999 -1.4597
-0.70946997 -0.45116001 -1.4355
-0.75691003 -0.48486999 -1.5427999
-0.75555003 -0.48603001 -1.5465
-0.75256002 -0.48609999 -1.5467
-0.75079 -0.48699 -1.5496
-0.74659002 -0.48624 -1.5472
-0.74400997 -0.48658001 -1.5482
-0.74102998 -0.48664001 -1.5484
-0.73724997 -0.48615 -1.5469
-0.73387003 -0.48593 -1.5462
-0.73049998 -0.48572001 -1.5455
-0.72753 -0.48576999 -1.5457
-0.72377998 -0.48526999 -1.5441
-0.72158998 -0.48587999 -1.546
-0.71901 -0.4862 -1.5470001
-0.71526998 -0.48570001 -1.5454
-0.7123 -0.48574001 -1.5456001
-0.70972002 -0.48605999 -1.5466
-0.70714003 -0.48638001 -1.5476
-0.70341998 -0.48587 -1.546
-0.70046002 -0.48591 -1.5461
-0.69788003 -0.48622 -1.5470999
-0.69529003 -0.48653999 -1.5481
-0.69159001 -0.48602 -1.5464
-0.68901002 -0.48633 -1.5474
-0.68605 -0.48636001 -1.5475
-0.68235999 -0.48583001 -1.5459
-0.67905003 -0.48558 -1.545
-0.67646998 -0.48587999 -1.546
-0.67425001 -0.48646 -1.5479
-0.67167002 -0.48675999 -1.5488
-0.66943997 -0.48734 -1.5506999
-0.66505998 -0.48624 -1.5472
-0.66211998 -0.48626 -1.5472
-0.65954 -0.48655 -1.5482
-0.6566 -0.48657 -1.5482
-0.65401 -0.48686001 -1.5491
-0.65177 -0.48743001 -1.551
-0.64918 -0.48772001 -1.5519
-0.64625001 -0.48773 -1.5519
-0.64192998 -0.48661 -1.5483
-0.639 -0.48661 -1.5483
-0.63573003 -0.48633 -1.5474
-0.63415998 -0.48745999 -1.551
-0.62988001 -0.48633 -1.5474
-0.62730002 -0.48660001 -1.5483
-0.62370002 -0.48603001 -1.5465
-0.62079 -0.48603001 -1.5465
-0.61720997 -0.48545 -1.5447
-0.61496001 -0.48600999 -1.5464
-1.1263 -0.48359999 -1.5434999
-1.1238 -0.48414001 -1.5452
-1.1212 -0.48467001 -1.5469
-1.1186 -0.48521 -1.5486
-1.1137 -0.48475 -1.5472
-1.1066 -0.48331001 -1.5426
-1.1052001 -0.48433 -1.5458
-1.1009001 -0.48411 -1.5451
-1.1006 -0.48563001 -1.55
-1.0941 -0.48440999 -1.5461
-1.0898 -0.48418999 -1.5454
-1.0867 -0.48446 -1.5462
-1.0836 -0.48473001 -1.5470999
-1.081 -0.48524001 -1.5487
-1.0745 -0.48401001 -1.5448
-1.0703 -0.48377001 -1.544
-1.0666 -0.48378 -1.5441
-1.0657001 -0.48503 -1.5481
-1.0635999 -0.48579001 -1.5505
-1.0605 -0.48604 -1.5513
-1.0552 -0.48528999 -1.5489
-1.0494 -0.48427999 -1.5457
-1.0446 -0.48377001 -1.544
-1.0420001 -0.48425999 -1.5456001
-1.0422 -0.48602 -1.5512
-1.039 -0.48626 -1.552
-1.0354 -0.48624 -1.5519
-1.0285 -0.48471001 -1.5470001
-1.0243 -0.48442999 -1.5462
-1.0218 -0.48491001 -1.5477
-1.0176001 -0.48462999 -1.5468
-1.0129 -0.48410001 -1.5451
-1.0098 -0.48432001 -1.5458
-1.0067 -0.48453999 -1.5465
-1.0031 -0.48451 -1.5464
-0.99943 -0.48447001 -1.5463001
-0.99476999 -0.48392001 -1.5445
-0.99374998 -0.48515001 -1.5484999
-0.99065 -0.48536 -1.5491
-0.98806 -0.48583001 -1.5506001
-0.98392999 -0.48552001 -1.5496
-0.98031998 -0.48547 -1.5495
-0.97772998 -0.48593 -1.5509
-0.97362 -0.48561999 -1.5499001
-0.96798003 -0.48453 -1.5465
-0.91377997 -0.45868 -1.464
-0.91942 -0.46324 -1.4785
-0.95569998 -0.48356 -1.5434
-0.95664001 -0.48582 -1.5506001
-0.95254999 -0.48548999 -1.5495
-0.84676999 -0.43228999 -1.3796999
-0.89810997 -0.47101 -1.5033
-0.91505998 -0.48188001 -1.538
-0.91588998 -0.48413 -1.5452
-0.91475999 -0.48535001 -1.5491
-0.91216999 -0.48576999 -1.5504
-0.90670002 -0.48462 -1.5468
-0.90267998 -0.48425999 -1.5456001
-0.89963001 -0.48442 -1.5461
-0.89657003 -0.48457 -1.5466
-0.89350998 -0.48471999 -1.5470999
-0.89046001 -0.48488 -1.5476
-0.88646001 -0.48449999 -1.5464
-0.88340998 -0.48464 -1.5468
-0.87941998 -0.48425999 -1.5456001
-0.87590998 -0.48414001 -1.5452
-0.87287003 -0.48427999 -1.5457
-0.86796999 -0.48335999 -1.5427001
-0.86216003 -0.48190999 -1.5381
-0.75133002 -0.4639 -1.4806
-0.77948999 -0.48405001 -1.5448999
-0.77775002 -0.48495001 -1.5477999
-0.77474999 -0.48503 -1.5481
-0.77217001 -0.48539001 -1.5492001
-0.76709998 -0.48411 -1.5451
-0.73159999 -0.46265 -1.4766999
-0.69553 -0.44062001 -1.4062999
-0.75771999 -0.48405999 -1.545
-0.75717998 -0.48576999 -1.5504
-0.75296998 -0.48502001 -1.548
-0.75160003 -0.48618001 -1.5517
-0.74699998 -0.48515001 -1.5484999
-0.74400997 -0.48521999 -1.5487
-0.73943001 -0.48418 -1.5454
-0.73645002 -0.48424 -1.5456001
-0.73347998 -0.48429999 -1.5457
-0.73049998 -0.48436001 -1.5459
-0.72792 -0.48469001 -1.5470001
-0.72573 -0.48528999 -1.5489
-0.72354001 -0.48589 -1.5508
-0.71978003 -0.48539001 -1.5492001
-0.71604002 -0.48489001 -1.5476
-0.71269 -0.48466 -1.5469
-0.71087003 -0.48552999 -1.5497
-0.70752001 -0.4853 -1.5489
-0.70530999 -0.48589 -1.5508
-0.70121002 -0.4851 -1.5483
-0.69825 -0.48514 -1.5484
-0.69567001 -0.48545 -1.5494
-0.69233 -0.48521 -1.5486
-0.68975002 -0.48552001 -1.5496
-0.68716002 -0.48583001 -1.5506001
-0.68347001 -0.4853 -1.5489
-0.68088001 -0.48561001 -1.5499001
-0.67684001 -0.48480001 -1.5473
-0.67425001 -0.4851 -1.5483
-0.67093998 -0.48484001 -1.5475
-0.66835999 -0.48514 -1.5484
-0.66613001 -0.48572001 -1.5503
-0.66319001 -0.48574001 -1.5503
-0.66025001 -0.48574999 -1.5504
-0.65623999 -0.48493001 -1.5477
-0.65331 -0.48493999 -1.5477999
-0.65072 -0.48523 -1.5487
-0.64884001 -0.48607999 -1.5513999
-0.64625001 -0.48636001 -1.5523
-0.64296001 -0.48609 -1.5513999
-0.63968003 -0.48581001 -1.5506001
-0.63607001 -0.48525 -1.5488
-0.63279998 -0.48497 -1.5479
-0.62988001 -0.48497 -1.5479
-0.62730002 -0.48524001 -1.5487
-0.62336999 -0.48438999 -1.546
-0.62146002 -0.48523 -1.5487
-0.61786997 -0.48466 -1.5469
-0.61594999 -0.48548999 -1.5495
-0.61369997 -0.48605001 -1.5513
-1.1238 -0.48256999 -1.5457
-1.1212 -0.48311001 -1.5474
-1.1174999 -0.48315001 -1.5475
-1.1131999 -0.48293999 -1.5469
-1.11 -0.48322999 -1.5477999
-1.1069 -0.48350999 -1.5487
-1.1032 -0.48354 -1.5488
-1.1 -0.48381001 -1.5497
-1.0930001 -0.48236001 -1.545
-1.0898 -0.48263001 -1.5459
-1.0872999 -0.48313999 -1.5475
-1.0836 -0.48315999 -1.5476
-1.0804 -0.48343 -1.5484
-1.0756 -0.48293999 -1.5469
-1.0719 -0.48295 -1.5469
-1.0677 -0.48271 -1.5461
-1.064 -0.48271999 -1.5462
-1.062 -0.48346999 -1.5486
-1.0594 -0.48396999 -1.5502
-1.0563 -0.48422 -1.551
-1.0505 -0.48322001 -1.5477999
-1.0452 -0.48245999 -1.5453
-1.0420001 -0.48269999 -1.5461
-1.0395 -0.48319 -1.5477
-1.038 -0.48418 -1.5509
-1.0348001 -0.48442 -1.5516
-1.0285 -0.48313999 -1.5475
-1.0249 -0.48311999 -1.5475
-1.0211999 -0.4831 -1.5474
-1.0165 -0.48256999 -1.5457
-1.0139 -0.48304 -1.5472
-1.0103 -0.48300999 -1.5470999
-1.0077 -0.48348999 -1.5486
-1.002 -0.48243001 -1.5453
-0.99839002 -0.4824 -1.5451
-0.99528998 -0.48260999 -1.5458
-0.99322999 -0.48333001 -1.5481
-0.99065 -0.48379999 -1.5496
-0.98549002 -0.48298001 -1.5470001
-0.98188001 -0.48293 -1.5469
-0.97877997 -0.48313999 -1.5475
-0.97671002 -0.48385 -1.5498
-0.97209001 -0.48328 -1.548
-0.96697003 -0.48245001 -1.5453
-0.89758998 -0.44898 -1.4381
-0.95626003 -0.48052001 -1.5391001
-0.95822001 -0.48328999 -1.548
-0.95463002 -0.48322001 -1.5477999
-0.90803999 -0.46094999 -1.4765
-0.91714001 -0.47964001 -1.5362999
-0.91847003 -0.48214999 -1.5443
-0.91588998 -0.48256999 -1.5457
-0.91523999 -0.48403999 -1.5504
-0.91266 -0.48447001 -1.5518
-0.90957999 -0.48462999 -1.5523
-0.90412003 -0.48348001 -1.5486
-0.90057999 -0.48337999 -1.5483
-0.898 -0.48379001 -1.5496
-0.89446002 -0.48368001 -1.5493
-0.89139998 -0.48383999 -1.5497
-0.88739997 -0.48346001 -1.5484999
-0.88529003 -0.48413 -1.5506999
-0.88082999 -0.48348999 -1.5486
-0.87730998 -0.48337001 -1.5482
-0.87333 -0.48298001 -1.5470001
-0.86565 -0.48047999 -1.539
-0.77450001 -0.47530001 -1.5224
-0.78333002 -0.48295 -1.5469
-0.78117001 -0.48357001 -1.5489
-0.77859002 -0.48392999 -1.55
-0.77557999 -0.48401001 -1.5503
-0.77174997 -0.48355001 -1.5488
-0.74562001 -0.46843001 -1.5003999
-0.73777002 -0.46524 -1.4902
-0.76235002 -0.48350999 -1.5487
-0.76016998 -0.48413 -1.5506999
-0.75759 -0.48447001 -1.5518
-0.75378001 -0.484 -1.5503
-0.75119001 -0.48434001 -1.5513999
-0.74779999 -0.48413 -1.5506999
-0.74400997 -0.48365 -1.5491
-0.74102998 -0.48370999 -1.5493
-0.73843998 -0.48405001 -1.5504
-0.73466998 -0.48356 -1.5489
-0.73207998 -0.48389 -1.5499001
-0.72988999 -0.48449001 -1.5519
-0.72612 -0.484 -1.5503
-0.72276002 -0.48378 -1.5496
-0.71978003 -0.48383 -1.5497
-0.71719998 -0.48414999 -1.5506999
-0.71421999 -0.4842 -1.5509
-0.71164 -0.48451999 -1.5519
-0.70752001 -0.48372999 -1.5494
-0.70607001 -0.48488 -1.5531
-0.70196998 -0.48409 -1.5506001
-0.699 -0.48413 -1.5506999
-0.69603997 -0.48416001 -1.5508
-0.69308001 -0.4842 -1.5509
-0.69011998 -0.48423001 -1.551
-0.68752998 -0.48453999 -1.552
-0.68347001 -0.48374 -1.5494
-0.68088001 -0.48403999 -1.5504
-0.67646998 -0.48295999 -1.5469
-0.67388999 -0.48326001 -1.5479
-0.67058003 -0.48300001 -1.5470999
-0.66835999 -0.48357999 -1.5489
-0.66684997 -0.48471001 -1.5525
-0.66426003 -0.48500001 -1.5535001
-0.66060001 -0.48446 -1.5518
-0.6566 -0.48363999 -1.5491
-0.65366 -0.48365 -1.5492001
-0.65107 -0.48394001 -1.5501
-0.64884001 -0.48451 -1.5519
-0.64625001 -0.48479 -1.5528001
-0.64296001 -0.48451999 -1.5519
-0.639 -0.48368001 -1.5493
-0.63573003 -0.48339999 -1.5484
-0.63279998 -0.48339999 -1.5484
-0.62988001 -0.48339999 -1.5484
-0.62763 -0.48396 -1.5501
-0.62471002 -0.48394999 -1.5501
-0.62079 -0.4831 -1.5474
-0.61821002 -0.48337999 -1.5483
-0.61562002 -0.48365 -1.5491
-0.61337 -0.4842 -1.5509
-1.1186 -0.48205 -1.5496
-1.1154 -0.48234001 -1.5505
-1.1123 -0.48262 -1.5513999
-1.1091 -0.48289999 -1.5523
-1.1043 -0.48243999 -1.5509
-1.1006 -0.48247001 -1.551
-1.0958 -0.48199999 -1.5495
-1.0915 -0.48177999 -1.5487
-1.0889 -0.48230001 -1.5504
-1.0869 -0.48306 -1.5528001
-1.0843 -0.48357001 -1.5545
-1.0784 -0.48258999 -1.5513999
-1.0736001 -0.48210999 -1.5498
-1.0727 -0.48335999 -1.5538
-1.069 -0.48337001 -1.5538
-1.0642 -0.48288 -1.5523
-1.0599999 -0.48263001 -1.5515
-1.0568 -0.48288 -1.5523
-1.0537 -0.48313001 -1.5531
-1.0489 -0.48262 -1.5513999
-1.0469 -0.48337001 -1.5538
-1.0427001 -0.48311001 -1.553
-1.0385 -0.48284 -1.5522
-1.0354 -0.48308 -1.5529
-1.0296 -0.48205999 -1.5496
-1.0290999 -0.48355001 -1.5544
-1.0239 -0.48277 -1.5519
-1.0192 -0.48223999 -1.5502
-1.0154999 -0.48221001 -1.5501
-1.0129 -0.48269001 -1.5517
-1.0088 -0.4824 -1.5506999
-1.0046 -0.48212001 -1.5498
-0.99996001 -0.48157001 -1.5481
-0.99633002 -0.48153001 -1.5479
-0.99115998 -0.48073 -1.5454
-0.98807001 -0.48094001 -1.546
-0.98496997 -0.48113999 -1.5467
-0.98188001 -0.48135 -1.5473
-0.97930002 -0.48179999 -1.5488
-0.97619998 -0.48201001 -1.5495
-0.97209001 -0.48168999 -1.5484999
-0.96798003 -0.48137999 -1.5475
-0.96388 -0.48106 -1.5464
-0.95473999 -0.47817999 -1.5372
-0.9562 -0.48067001 -1.5452
-0.95311999 -0.48085999 -1.5458
-0.94755 -0.47975999 -1.5423
-0.83322001 -0.43346 -1.3934
-0.91505998 -0.47874999 -1.539
-0.91636997 -0.48124999 -1.5470001
-0.91523999 -0.48245001 -1.5509
-0.91073 -0.48183 -1.5489
-0.90766001 -0.48199001 -1.5494
-0.90556002 -0.48267001 -1.5516
-0.90297002 -0.48309001 -1.553
-0.89942002 -0.48299 -1.5526
-0.89446002 -0.48210001 -1.5498
-0.89187998 -0.48251 -1.5511
-0.88835001 -0.4824 -1.5506999
-0.88576001 -0.48280999 -1.552
-0.88270003 -0.48295 -1.5525
-0.87870997 -0.48256999 -1.5513
-0.87426001 -0.48192 -1.5492001
-0.8689 -0.48074001 -1.5454
-0.73266 -0.44707999 -1.4372
-0.78290999 -0.48109001 -1.5465
-0.78201002 -0.48252001 -1.5511
-0.77942002 -0.48288 -1.5523
-0.77642 -0.48295999 -1.5525
-0.77174997 -0.48196 -1.5493
-0.76049 -0.47663 -1.5322
-0.74436003 -0.46803999 -1.5046
-0.75251001 -0.47542 -1.5283
-0.75976998 -0.48227 -1.5503
-0.75717998 -0.48260999 -1.5513999
-0.75458997 -0.48295 -1.5525
-0.75079 -0.48247001 -1.551
-0.74980998 -0.48390001 -1.5556
-0.74641001 -0.48368999 -1.5549001
-0.74302 -0.48348999 -1.5542001
-0.73962998 -0.48326999 -1.5535001
-0.73624998 -0.48306 -1.5529
-0.73286998 -0.48284999 -1.5522
-0.72948998 -0.48263001 -1.5515
-0.72650999 -0.48267999 -1.5516
-0.72237003 -0.48190999 -1.5492001
-0.72017002 -0.48251 -1.5511
-0.71680999 -0.48229 -1.5504
-0.71421999 -0.48260999 -1.5513999
-0.71164 -0.48293 -1.5524
-0.70905 -0.48324001 -1.5534
-0.70644999 -0.48356 -1.5545
-0.70310003 -0.48332 -1.5537
-0.70012999 -0.48335999 -1.5538
-0.69717002 -0.48339999 -1.5539
-0.69457 -0.48370999 -1.5549001
-0.69198 -0.48401999 -1.5559
-0.68826997 -0.4835 -1.5543
-0.68383998 -0.48242 -1.5508
-0.68124998 -0.48273 -1.5518
-0.67829001 -0.48275 -1.5519
-0.67497998 -0.48249999 -1.5511
-0.67167002 -0.48225001 -1.5502
-0.66943997 -0.48282 -1.5520999
-0.66720998 -0.48339 -1.5539
-0.66426003 -0.48341 -1.554
-0.66060001 -0.48287001 -1.5522
-0.65623999 -0.48177001 -1.5487
-0.65366 -0.48205999 -1.5497
-0.65107 -0.48234999 -1.5506001
-0.64918 -0.48319 -1.5533
-0.64590001 -0.48291999 -1.5524
-0.64296001 -0.48293 -1.5524
-0.63968003 -0.48265001 -1.5515
-0.63674998 -0.48265001 -1.5515
-0.63415998 -0.48293 -1.5524
-0.63156998 -0.48321 -1.5533
-0.62865001 -0.48321 -1.5533
-0.62537998 -0.48291999 -1.5524
-0.62178999 -0.48236001 -1.5506001
-0.61919999 -0.48263001 -1.5515
-0.61760998 -0.48374 -1.5549999
-0.61435002 -0.48345 -1.5541
-1.1149 -0.48049 -1.5502
-1.1123 -0.48100999 -1.5519
-1.1091 -0.48129001 -1.5528001
-1.1065 -0.48181 -1.5545
-1.1023 -0.48159999 -1.5538
-1.0963 -0.48065001 -1.5508
-1.0921 -0.48041999 -1.55
-1.09 -0.48118001 -1.5525
-1.0874 -0.4817 -1.5541
-1.0854 -0.48245001 -1.5566
-1.0817 -0.48247001 -1.5566
-1.0769 -0.48199001 -1.5551
-1.0727 -0.48175001 -1.5543
-1.0678999 -0.48126999 -1.5528001
-1.0647 -0.48152 -1.5536
-1.0616 -0.48177001 -1.5544
-1.059 -0.48227 -1.556
-1.0548 -0.48201999 -1.5552
-1.0511 -0.48201001 -1.5552
-1.048 -0.48225999 -1.5559
-1.0443 -0.48225001 -1.5559
-1.0405999 -0.48223999 -1.5559
-1.0364 -0.48197001 -1.5549999
-1.0306 -0.48095 -1.5517
-1.0312001 -0.48293999 -1.5582
-1.0255001 -0.48192 -1.5549001
-1.0213 -0.48164001 -1.554
-1.0182 -0.48187 -1.5547
-1.0156 -0.48234001 -1.5562
-1.0098 -0.4813 -1.5529
-1.0067 -0.48152 -1.5536
-1.0031 -0.48148999 -1.5535001
-0.99997002 -0.4817 -1.5542001
-0.99374998 -0.48039001 -1.5499001
-0.99270999 -0.48162001 -1.5539
-0.98806 -0.48106 -1.5520999
-0.98598999 -0.48177999 -1.5544
-0.98083001 -0.48096001 -1.5518
-0.97772998 -0.48117 -1.5524
-0.97362 -0.48085999 -1.5513999
-0.96899998 -0.48029 -1.5496
-0.96489 -0.47997001 -1.5486
-0.95776999 -0.47812 -1.5426
-0.95520002 -0.47856 -1.544
-0.95262003 -0.47900999 -1.5455
-0.94954997 -0.47918999 -1.5461
-0.91798002 -0.47870001 -1.5445
-0.91927999 -0.48120001 -1.5525
-0.91573 -0.48111001 -1.5522
-0.91169 -0.48074999 -1.5511
-0.90862 -0.48091 -1.5516
-0.90604001 -0.48133001 -1.553
-0.90344 -0.48175001 -1.5543
-0.90085 -0.48216 -1.5556
-0.89541 -0.48100999 -1.5519
-0.89187998 -0.48089999 -1.5516
-0.88928998 -0.48131001 -1.5529
-0.88622999 -0.48146001 -1.5534
-0.88270003 -0.48133999 -1.553
-0.87963998 -0.48148999 -1.5535001
-0.87472999 -0.48058 -1.5505
-0.87213999 -0.48098001 -1.5518
-0.73180997 -0.44506001 -1.4359
-0.78333002 -0.47975999 -1.5479
-0.78242999 -0.48119 -1.5525
-0.78026003 -0.48181 -1.5545
-0.77767003 -0.48216 -1.5556
-0.77383 -0.4817 -1.5542001
-0.75718999 -0.47288999 -1.5257
-0.74436003 -0.46647999 -1.5051
-0.75128001 -0.47303 -1.5262001
-0.76058 -0.48120001 -1.5525
-0.75799 -0.48153999 -1.5536
-0.755 -0.48161 -1.5539
-0.75199997 -0.48168001 -1.5541
-0.74980998 -0.48229 -1.5561
-0.74641001 -0.48208001 -1.5554
-0.74342 -0.48214999 -1.5556
-0.74002999 -0.48194 -1.5549001
-0.73742998 -0.48227 -1.556
-0.73444003 -0.48232999 -1.5562
-0.73145998 -0.48238 -1.5563999
-0.72768998 -0.48188999 -1.5548
-0.72548002 -0.48249 -1.5567
-0.72288001 -0.48282 -1.5578001
-0.71912998 -0.48232001 -1.5561
-0.71575999 -0.48209 -1.5554
-0.71201998 -0.48159 -1.5538
-0.70981002 -0.48218 -1.5556999
-0.70644999 -0.48195001 -1.5549999
-0.70310003 -0.48172 -1.5542001
-0.70012999 -0.48175001 -1.5543
-0.69753999 -0.48207 -1.5553
-0.69419998 -0.48183 -1.5546
-0.69160998 -0.48212999 -1.5556
-0.68901002 -0.48243999 -1.5565
-0.68457001 -0.48137 -1.5531
-0.68124998 -0.48111999 -1.5523
-0.67901999 -0.4817 -1.5541
-0.67534 -0.48117 -1.5524
-0.67238998 -0.48119 -1.5525
-0.66979998 -0.48148999 -1.5535001
-0.66756999 -0.48205999 -1.5553
-0.66496998 -0.48236001 -1.5563
-0.66202003 -0.48236999 -1.5563
-0.65836 -0.48183 -1.5546
-0.65542001 -0.48184001 -1.5546
-0.65283 -0.48212999 -1.5555
-0.65022999 -0.48242 -1.5565
-0.64658999 -0.48187 -1.5547
-0.64331001 -0.48159999 -1.5538
-0.64105999 -0.48216 -1.5556
-0.63744003 -0.48159999 -1.5538
-0.63485003 -0.48188001 -1.5547
-0.63191003 -0.48188001 -1.5547
-0.62932003 -0.48216 -1.5556
-0.62605 -0.48187 -1.5547
-0.62246001 -0.48131001 -1.5529
-0.61987001 -0.48157999 -1.5538
-0.61728001 -0.48185 -1.5546
-0.61467999 -0.48212001 -1.5555
-1.1149 -0.47887999 -1.5506999
-1.1129 -0.47964001 -1.5532
-1.1097 -0.47992 -1.5541
-1.1059999 -0.47995001 -1.5542001
-1.1006 -0.47925001 -1.552
-1.098 -0.47977 -1.5536
-1.0937001 -0.47955 -1.5529
-1.0906 -0.47982001 -1.5538
-1.0874 -0.48008001 -1.5546
-1.0849 -0.48058999 -1.5563
-1.0806 -0.48036 -1.5555
-1.0757999 -0.47988001 -1.554
-1.0716 -0.47964001 -1.5532
-1.0684 -0.4799 -1.554
-1.0647 -0.4799 -1.5541
-1.0605 -0.47966 -1.5533
-1.0574 -0.47990999 -1.5541
-1.0548 -0.4804 -1.5556999
-1.0511 -0.4804 -1.5556999
-1.0474 -0.48039001 -1.5556
-1.0448 -0.48087999 -1.5572
-1.0405999 -0.48062 -1.5563999
-1.0364 -0.48036 -1.5555
-1.0317 -0.47984001 -1.5539
-1.0281 -0.47982001 -1.5538
-1.026 -0.48054999 -1.5562
-1.0223 -0.48052999 -1.5561
-1.0187 -0.48050001 -1.556
-1.0161 -0.48098001 -1.5575
-1.0124 -0.48095 -1.5574
-1.0072 -0.48016 -1.5549001
-1.0031 -0.47986999 -1.554
-0.99945003 -0.47983 -1.5538
-0.99633998 -0.48004001 -1.5545
-0.99374998 -0.48051 -1.556
-0.98806 -0.47944999 -1.5526
-0.98547 -0.47990999 -1.5541
-0.98133999 -0.47961 -1.5531
-0.97926003 -0.48030999 -1.5554
-0.97565001 -0.48026001 -1.5552
-0.96899998 -0.47868001 -1.5501
-0.92694002 -0.45928001 -1.4873
-0.92447001 -0.45969999 -1.4886
-0.95520002 -0.47696 -1.5445
-0.95262003 -0.4774 -1.546
-0.90003997 -0.45229 -1.4646
-0.89713001 -0.46430999 -1.5036
-0.92040998 -0.47839001 -1.5492001
-0.9188 -0.47933 -1.5522
-0.91718 -0.48027 -1.5552
-0.91409999 -0.48043001 -1.5558
-0.90957999 -0.47982001 -1.5538
-0.90698999 -0.48023 -1.5551
-0.90297002 -0.47986999 -1.554
-0.90038002 -0.48029 -1.5553
-0.89587998 -0.47966 -1.5533
-0.89424002 -0.48058999 -1.5563
-0.89023 -0.48021999 -1.5551
-0.88717002 -0.48036999 -1.5556
-0.88270003 -0.47973001 -1.5535001
-0.87870997 -0.47935 -1.5523
-0.87239999 -0.47766 -1.5468
-0.74054998 -0.44725001 -1.4483
-0.78675997 -0.47832999 -1.549
-0.78586 -0.47975999 -1.5536
-0.78495002 -0.48118001 -1.5582
-0.78026003 -0.48019001 -1.5549999
-0.77683002 -0.48001 -1.5544
-0.75931001 -0.47069001 -1.5242
-0.73528999 -0.45706001 -1.4801
-0.74518001 -0.46546 -1.5073
-0.76275998 -0.47898 -1.5511
-0.76139998 -0.48012999 -1.5548
-0.75840002 -0.48019999 -1.5549999
-0.75581002 -0.48054001 -1.5561
-0.75239998 -0.48034 -1.5555
-0.74940997 -0.4804 -1.5556999
-0.74601001 -0.48019999 -1.5549999
-0.74342 -0.48052999 -1.5561
-0.74002999 -0.48032001 -1.5554
-0.73663998 -0.48010999 -1.5547
-0.73325998 -0.4799 -1.554
-0.73027998 -0.47995001 -1.5542001
-0.72729999 -0.48001 -1.5544
-0.72548002 -0.48087001 -1.5572
-0.72288001 -0.48120001 -1.5583
-0.72027999 -0.48152 -1.5592999
-0.7173 -0.48157001 -1.5594
-0.71354997 -0.48107001 -1.5578001
-0.71019 -0.48084 -1.5571001
-0.70683002 -0.48061001 -1.5563
-0.70310003 -0.48010001 -1.5547
-0.70012999 -0.48014 -1.5548
-0.69792002 -0.48072001 -1.5567
-0.69606 -0.48157999 -1.5595
-0.69345999 -0.48188999 -1.5605
-0.68975002 -0.48137 -1.5588
-0.68605 -0.48085001 -1.5571001
-0.68272001 -0.48061001 -1.5563
-0.67975003 -0.48063001 -1.5563999
-0.67680001 -0.48065999 -1.5565
-0.67383999 -0.48067999 -1.5566
-0.67052001 -0.48043001 -1.5558
-0.66756999 -0.48045 -1.5558
-0.66426003 -0.48019001 -1.5549999
-0.66167003 -0.48047999 -1.5559
-0.65942001 -0.48104 -1.5578001
-0.65683001 -0.48133001 -1.5587
-0.65388 -0.48135 -1.5587
-0.65057999 -0.48108 -1.5579
-0.64728999 -0.48080999 -1.557
-0.64365 -0.48026001 -1.5552
-0.64174998 -0.48109999 -1.5579
-0.63880998 -0.48109999 -1.5579
-0.63586998 -0.48109999 -1.5579
-0.63225001 -0.48054001 -1.5561
-0.62966001 -0.48082 -1.557
-0.62672001 -0.48080999 -1.557
-0.62479001 -0.48164001 -1.5597
-0.62219 -0.48190999 -1.5606
-0.61926001 -0.48190999 -1.5605
-0.61567003 -0.48133999 -1.5587
-1.1102999 -0.47858 -1.5554
-1.1071 -0.47885999 -1.5563
-1.1028 -0.47865 -1.5556
-1.1014 -0.47964999 -1.5589
-1.0987999 -0.48016 -1.5605
-1.0934 -0.47946 -1.5582
-1.0874 -0.47850001 -1.5551
-1.0832 -0.47826999 -1.5544
-1.0778 -0.47755 -1.552
-1.0747 -0.47781 -1.5529
-1.0721 -0.47830999 -1.5545
-1.0695 -0.47881001 -1.5561
-1.0658 -0.47881001 -1.5562
-1.0616 -0.47857001 -1.5554
-1.0579 -0.47857001 -1.5554
-1.0553 -0.47905999 -1.557
-1.0511 -0.47881001 -1.5562
-1.0484999 -0.47929999 -1.5577
-1.0438 -0.4788 -1.5561
-1.0412 -0.47927999 -1.5577
-1.0375 -0.47927001 -1.5576
-1.0322 -0.47850999 -1.5552
-1.0286 -0.47849 -1.5551
-1.026 -0.47896999 -1.5566
-1.0229 -0.47918999 -1.5574
-1.0197001 -0.47942001 -1.5581
-1.0177 -0.48014 -1.5605
-1.0145 -0.48036 -1.5612
-1.0099 -0.47983 -1.5595
-1.0057 -0.47953999 -1.5585001
-1.0015 -0.47926 -1.5576
-0.99790001 -0.47922 -1.5575
-0.99374998 -0.47892001 -1.5565
-0.99063998 -0.47913 -1.5572
-0.98598999 -0.47858 -1.5554
-0.98185998 -0.47828001 -1.5544
-0.97977 -0.47898 -1.5567
-0.97718 -0.47944 -1.5582
-0.97355998 -0.47938001 -1.558
-0.96692002 -0.47780001 -1.5529
-0.93355 -0.46276 -1.5039999
-0.92953998 -0.46241999 -1.5029
-0.95311999 -0.47608 -1.5473
-0.94354999 -0.47295001 -1.5371
-0.90289998 -0.46755999 -1.5196
-0.9188 -0.47775 -1.5527
-0.91766 -0.47894001 -1.5566
-0.91457999 -0.47909999 -1.5571001
-0.91005999 -0.47849 -1.5551
-0.90698999 -0.47865 -1.5556
-0.90535003 -0.47957999 -1.5585999
-0.90132999 -0.47922 -1.5575
-0.89731002 -0.47885999 -1.5563
-0.89517999 -0.47951999 -1.5585001
-0.89117002 -0.47916001 -1.5573
-0.88858002 -0.47955999 -1.5585999
-0.88363999 -0.47867 -1.5556999
-0.87918001 -0.47803 -1.5536
-0.87287003 -0.47635001 -1.5481
-0.78364998 -0.42800999 -1.391
-0.70704001 -0.42473 -1.3803999
-0.78759998 -0.47729 -1.5512
-0.78670001 -0.47871 -1.5558
-0.78452998 -0.47933 -1.5578001
-0.78068 -0.47887999 -1.5563999
-0.77683002 -0.47843 -1.5549001
-0.76138002 -0.47048 -1.5290999
-0.70554 -0.43627 -1.4179
-0.70485002 -0.43765 -1.4224
-0.76112002 -0.47632 -1.5481
-0.76222003 -0.47907999 -1.557
-0.75920999 -0.47915 -1.5573
-0.75661999 -0.47949001 -1.5584
-0.75321001 -0.47929001 -1.5577
-0.75060999 -0.47962999 -1.5588
-0.74601001 -0.47861999 -1.5555
-0.74342 -0.47894999 -1.5566
-0.74081999 -0.47927999 -1.5577
-0.73980999 -0.48069 -1.5622
-0.73602003 -0.48021001 -1.5607001
-0.73185003 -0.47944999 -1.5582
-0.72886002 -0.47951001 -1.5584
-0.72587001 -0.47955999 -1.5585999
-0.72327 -0.47988001 -1.5596
-0.72027999 -0.47993001 -1.5598
-0.7173 -0.47997999 -1.5599
-0.71430999 -0.48003 -1.5601
-0.71170998 -0.48034 -1.5611
-0.70797002 -0.47984001 -1.5595
-0.70385998 -0.47905999 -1.557
-0.70125997 -0.47937 -1.558
-0.69866002 -0.47968 -1.559
-0.69643998 -0.48027 -1.5609
-0.69272 -0.47975001 -1.5592
-0.68975002 -0.47977999 -1.5592999
-0.68567997 -0.47898999 -1.5567
-0.68308002 -0.47929999 -1.5577
-0.68011999 -0.47931999 -1.5578001
-0.67751998 -0.47962001 -1.5588
-0.6742 -0.47937 -1.558
-0.67159998 -0.47966999 -1.5589
-0.66864002 -0.47968999 -1.559
-0.66569 -0.4797 -1.559
-0.66237998 -0.47944 -1.5582
-0.65942001 -0.47946 -1.5582
-0.65718001 -0.48001999 -1.5601
-0.65388 -0.47975999 -1.5592
-0.65057999 -0.47949001 -1.5584
-0.64762998 -0.4795 -1.5584
-0.64433998 -0.47922999 -1.5575
-0.64209002 -0.47979 -1.5592999
-0.63880998 -0.47951001 -1.5584
-0.63552999 -0.47924 -1.5575
-0.63225001 -0.47896001 -1.5566
-0.62932003 -0.47896001 -1.5566
-0.62672001 -0.47922999 -1.5575
-0.62513 -0.48032999 -1.5611
-0.62219 -0.48032999 -1.5611
-0.61926001 -0.48032001 -1.561
-0.61567003 -0.47975001 -1.5592
-0.61273998 -0.47973999 -1.5592
-1.1102999 -0.47701001 -1.5559
-1.1065 -0.47703999 -1.556
-1.1034 -0.47731 -1.5569
-1.0997 -0.47734001 -1.557
-1.0971 -0.47784999 -1.5585999
-1.0939 -0.47812 -1.5595
-1.0901999 -0.47814 -1.5596
-1.0854 -0.47767001 -1.5581
-1.0822999 -0.47793001 -1.5589
-1.0775 -0.47746 -1.5574
-1.0743001 -0.47771001 -1.5582
-1.0706 -0.47771999 -1.5582
-1.0675 -0.47797999 -1.559
-1.0627 -0.47749001 -1.5575
-1.059 -0.47749001 -1.5575
-1.0563999 -0.47797999 -1.5591
-1.0533 -0.47821999 -1.5599
-1.0506999 -0.47871 -1.5614001
-1.0475 -0.47894999 -1.5622
-1.0444 -0.47918999 -1.563
-1.0412 -0.47942999 -1.5638
-1.0354 -0.47841999 -1.5605
-1.0318 -0.47839999 -1.5604
-1.0281 -0.47837999 -1.5604
-1.0239 -0.47810999 -1.5595
-1.0197001 -0.47784001 -1.5585999
-1.015 -0.47731 -1.5569
-1.0124 -0.47778001 -1.5584
-1.0088 -0.47775 -1.5583
-1.0052 -0.47771999 -1.5582
-1.0015 -0.47768 -1.5581
-0.99892998 -0.47814 -1.5596
-0.99529999 -0.4781 -1.5594
-0.99115002 -0.47781 -1.5585001
-0.98752999 -0.47775999 -1.5583
-0.98492998 -0.47821 -1.5598
-0.98079997 -0.47791001 -1.5588
-0.97871 -0.47861999 -1.5611
-0.9756 -0.47881001 -1.5618
-0.97046 -0.47799999 -1.5591
-0.93052 -0.45971999 -1.4995
-0.95863998 -0.47729999 -1.5568
-0.95305002 -0.47622001 -1.5533
-0.90338999 -0.46628001 -1.5209
-0.91927999 -0.47643 -1.554
-0.91668999 -0.47685 -1.5554
-0.91409999 -0.47727001 -1.5567
-0.91294998 -0.47846001 -1.5606
-0.90987003 -0.47861999 -1.5611
-0.90631002 -0.47852001 -1.5608
-0.90323001 -0.47867 -1.5613
-0.89968002 -0.47857001 -1.561
-0.89706999 -0.47898 -1.5623
-0.89306003 -0.47861001 -1.5611
-0.88950998 -0.47850001 -1.5608
-0.88598001 -0.47839001 -1.5604
-0.88243997 -0.47826999 -1.5599999
-0.87611997 -0.47659999 -1.5545
-0.78781998 -0.42894 -1.3990999
-0.71000999 -0.42519 -1.3868999
-0.79056001 -0.47758001 -1.5577
-0.78838998 -0.47819999 -1.5598
-0.78411001 -0.47747999 -1.5574
-0.78026003 -0.47703999 -1.556
-0.77767003 -0.47738001 -1.5571001
-0.73152 -0.44973001 -1.4669
-0.68571001 -0.42201999 -1.3765
-0.72296 -0.44797 -1.4612
-0.76440001 -0.47690001 -1.5555
-0.76302999 -0.47804001 -1.5592
-0.76084 -0.47865 -1.5612
-0.75823998 -0.47898999 -1.5623
-0.75523001 -0.47905999 -1.5626
-0.75102001 -0.47832 -1.5602
-0.74721003 -0.47784999 -1.5585999
-0.74580997 -0.47898 -1.5623
-0.74201 -0.47850999 -1.5608
-0.73980999 -0.47911 -1.5627
-0.73720002 -0.47944 -1.5638
-0.7342 -0.47949001 -1.564
-0.73080999 -0.47927999 -1.5633
-0.72626001 -0.47825 -1.5599
-0.72404999 -0.47883999 -1.5619
-0.71912998 -0.47753999 -1.5576
-0.71653003 -0.47786 -1.5587
-0.71354997 -0.4779 -1.5588
-0.71170998 -0.47876 -1.5616
-0.70911002 -0.47907001 -1.5626
-0.70499003 -0.47830001 -1.5601
-0.70200998 -0.47834 -1.5602
-0.69904 -0.47837999 -1.5604
-0.69681001 -0.47896001 -1.5622
-0.69345999 -0.47872001 -1.5615
-0.69011998 -0.47848001 -1.5607001
-0.68641001 -0.47795999 -1.559
-0.68344998 -0.47799 -1.5591
-0.68085003 -0.47828999 -1.5601
-0.67787999 -0.47832 -1.5602
-0.67492002 -0.47834 -1.5602
-0.67268002 -0.47891 -1.5621001
-0.66935998 -0.47865 -1.5613
-0.66640002 -0.47867 -1.5613
-0.66343999 -0.47869 -1.5614001
-0.66013002 -0.47843 -1.5605
-0.65753001 -0.47872001 -1.5615
-0.65423 -0.47845 -1.5606
-0.65127999 -0.47846001 -1.5606
-0.64832997 -0.47847 -1.5607001
-0.64607 -0.47903001 -1.5625
-0.64243001 -0.47848001 -1.5607001
-0.63949001 -0.47849 -1.5607001
-0.63586998 -0.47793999 -1.5589
-0.63292998 -0.47793001 -1.5589
-0.62998998 -0.47793001 -1.5589
-0.62706 -0.47793001 -1.5589
-0.62479001 -0.47847 -1.5607001
-0.62186003 -0.47847 -1.5606
-0.61958998 -0.47900999 -1.5624
-0.61633003 -0.47872999 -1.5615
-0.61241001 -0.47788 -1.5587
-1.1082 -0.47619 -1.5588
-1.104 -0.47598001 -1.5582
-1.1008 -0.47624999 -1.559
-1.0976 -0.47652 -1.5599
-1.0939 -0.47654 -1.5599999
-1.0901999 -0.47656 -1.5601
-1.0871 -0.47683001 -1.5609
-1.0817 -0.47611001 -1.5585999
-1.0775 -0.47588 -1.5578001
-1.0716 -0.47492 -1.5547
-1.0706 -0.47615001 -1.5587
-1.068 -0.47663999 -1.5603
-1.0654 -0.47714001 -1.5619
-1.0606 -0.47665 -1.5603
-1.057 -0.47665 -1.5603
-1.0527 -0.47639999 -1.5595
-1.0496 -0.47663999 -1.5603
-1.0470001 -0.47712001 -1.5619
-1.0444 -0.47760999 -1.5635
-1.0412 -0.47784001 -1.5642999
-1.0349 -0.47659001 -1.5602
-1.0302 -0.47608 -1.5585001
-1.0286 -0.47705001 -1.5617
-1.0245 -0.47678 -1.5608
-1.0208 -0.47676 -1.5607001
-1.0161 -0.47623 -1.559
-1.0118999 -0.47595999 -1.5581
-1.0093 -0.47641999 -1.5596
-1.0052 -0.47613999 -1.5587
-1.0026 -0.47659999 -1.5602
-0.99892998 -0.47656 -1.5601
-0.99580997 -0.47677001 -1.5607001
-0.99115002 -0.47623 -1.559
-0.98752999 -0.47617999 -1.5588
-0.98492998 -0.47663 -1.5603
-0.98181999 -0.47683999 -1.561
-0.97921997 -0.47729 -1.5624
-0.97661 -0.47773001 -1.5639
-0.96741998 -0.47490999 -1.5546
-0.9497 -0.46777999 -1.5312999
-0.94714999 -0.46822 -1.5326999
-0.95161998 -0.47218999 -1.5457
-0.83371001 -0.42658001 -1.3965
-0.92236 -0.47468999 -1.5539
-0.92025 -0.47536999 -1.5562
-0.91766 -0.47578999 -1.5575
-0.91505998 -0.47621 -1.5589
-0.91294998 -0.47688001 -1.5611
-0.90987003 -0.47703999 -1.5616
-0.90535003 -0.47641999 -1.5596
-0.90179998 -0.47632 -1.5592999
-0.89920002 -0.47672999 -1.5606
-0.89613003 -0.47688001 -1.5611
-0.89353001 -0.47729 -1.5624
-0.89045 -0.47744 -1.5628999
-0.88643998 -0.47707 -1.5617
-0.88291001 -0.47694999 -1.5613
-0.76082999 -0.41088 -1.345
-0.70249999 -0.4174 -1.3664
-0.79400998 -0.47617 -1.5588
-0.79268003 -0.47731999 -1.5626
-0.78881001 -0.47688001 -1.5611
-0.78285003 -0.47510999 -1.5553
-0.77565998 -0.47253999 -1.5469
-0.67941999 -0.41312 -1.3523999
-0.67637002 -0.41288 -1.3516001
-0.76420999 -0.47117999 -1.5424
-0.76986998 -0.47683999 -1.561
-0.76809001 -0.47771999 -1.5639
-0.76507002 -0.47779 -1.5641
-0.76165003 -0.47760001 -1.5635
-0.75823998 -0.4774 -1.5628
-0.75523001 -0.47747001 -1.563
-0.75182003 -0.47727001 -1.5624
-0.74880999 -0.47734001 -1.5626
-0.74501002 -0.47687 -1.5611
-0.74241 -0.4772 -1.5621001
-0.73940998 -0.47725999 -1.5623
-0.73602003 -0.47705001 -1.5616
-0.73342001 -0.47736999 -1.5627
-0.73119998 -0.47795999 -1.5647
-0.72742999 -0.47747999 -1.5631
-0.72327 -0.47672001 -1.5606
-0.71990001 -0.4765 -1.5599
-0.7173 -0.47681999 -1.5609
-0.71430999 -0.47685999 -1.5611
-0.71170998 -0.47718 -1.5621001
-0.70835 -0.47694999 -1.5613
-0.70499003 -0.47672001 -1.5606
-0.70239002 -0.47703001 -1.5616
-0.69904 -0.47679999 -1.5608
-0.69606 -0.47683001 -1.561
-0.69309002 -0.47687 -1.5611
-0.69011998 -0.47690001 -1.5612
-0.68752003 -0.4772 -1.5622
-0.68381 -0.47668001 -1.5605
-0.68120998 -0.47698 -1.5614001
-0.67861003 -0.47727999 -1.5624
-0.67637002 -0.47784999 -1.5642999
-0.67303997 -0.47760001 -1.5635
-0.66971999 -0.47735 -1.5626
-0.66676003 -0.47736001 -1.5627
-0.66308999 -0.47683001 -1.561
-0.66048998 -0.47712001 -1.5619
-0.65753001 -0.47714001 -1.5619
-0.65527999 -0.47769001 -1.5638
-0.65267003 -0.47797999 -1.5647
-0.64937001 -0.47771001 -1.5638
-0.64710999 -0.47826999 -1.5657001
-0.64346999 -0.47773001 -1.5639
-0.63812 -0.47580999 -1.5576
-0.63519001 -0.47580999 -1.5576
-0.63259 -0.47608 -1.5585001
-0.63067001 -0.47690001 -1.5612
-0.62773001 -0.47690001 -1.5612
-0.62445998 -0.47661999 -1.5603
-0.62120003 -0.47634 -1.5592999
-0.61992002 -0.47771001 -1.5638
-0.61666 -0.47742 -1.5628999
-0.61307001 -0.47685999 -1.561
-1.1051 -0.47488001 -1.5602
-1.1025 -0.47538999 -1.5619
-1.0993 -0.47566 -1.5628
-1.0962 -0.47593001 -1.5637
-1.0924 -0.47595 -1.5637
-1.0871 -0.47525001 -1.5614001
-1.0845 -0.47575 -1.5631
-1.0819 -0.47624999 -1.5647
-1.0738 -0.47431999 -1.5584
-1.0728 -0.47554001 -1.5624
-1.0686001 -0.47531 -1.5616
-1.067 -0.47628999 -1.5648
-1.0623 -0.47580001 -1.5632
-1.0591 -0.47604999 -1.564
-1.056 -0.47628999 -1.5648
-1.0523 -0.47628999 -1.5648
-1.0486 -0.47628 -1.5648
-1.0439 -0.47578001 -1.5632
-1.0412 -0.47626001 -1.5647
-1.0376 -0.47624999 -1.5647
-1.0328 -0.47573999 -1.563
-1.0297 -0.47595999 -1.5638
-1.0255001 -0.47569999 -1.5628999
-1.0213 -0.47543001 -1.562
-1.0187 -0.47589001 -1.5635
-1.0151 -0.47587001 -1.5635
-1.0114 -0.47584 -1.5634
-1.0067 -0.47531 -1.5616
-1.0031 -0.47527 -1.5615
-0.99997002 -0.47547999 -1.5622
-0.99735999 -0.47593999 -1.5637
-0.99321002 -0.47565001 -1.5627
-0.99061 -0.4761 -1.5642
-0.98594999 -0.47555 -1.5624
-0.98284 -0.47576001 -1.5631
-0.98074001 -0.47646001 -1.5654
-0.97812998 -0.47690001 -1.5669
-0.97451001 -0.47685 -1.5667
-0.95978999 -0.47126001 -1.5483
-0.90389001 -0.44501999 -1.4621
-0.94259 -0.46608999 -1.5312999
-0.91854 -0.45567 -1.4971
-0.86593997 -0.44361001 -1.4575
-0.91977 -0.47354001 -1.5558
-0.91911 -0.47498 -1.5605
-0.91746998 -0.47589999 -1.5635999
-0.91487002 -0.47632 -1.5649
-0.9113 -0.47622001 -1.5646
-0.90821999 -0.47637999 -1.5651
-0.90465999 -0.47628 -1.5648
-0.90109998 -0.47617999 -1.5645
-0.89754999 -0.47606999 -1.5641
-0.89399999 -0.47595999 -1.5638
-0.89091998 -0.47611001 -1.5642999
-0.88738 -0.47600001 -1.5639
-0.88196999 -0.47486001 -1.5601
-0.82033998 -0.44251001 -1.4539
-0.79145998 -0.47301 -1.5541
-0.79013997 -0.47415999 -1.5578001
-0.78754002 -0.47451001 -1.559
-0.78452998 -0.47459 -1.5592999
-0.77608001 -0.47124001 -1.5482
-0.67692 -0.41016001 -1.3476
-0.67470998 -0.41046 -1.3485
-0.76833999 -0.47227001 -1.5516
-0.77069998 -0.47578999 -1.5632
-0.76849997 -0.47639999 -1.5652
-0.76589 -0.47674 -1.5663
-0.76247001 -0.47655001 -1.5657001
-0.75985998 -0.47689 -1.5668
-0.75643998 -0.47668999 -1.5662
-0.75383002 -0.47702 -1.5673
-0.75041997 -0.47681999 -1.5666
-0.74580997 -0.47582 -1.5633
-0.74321002 -0.47615001 -1.5644
-0.74059999 -0.47648001 -1.5655
-0.73760003 -0.47652999 -1.5656
-0.73302001 -0.47552001 -1.5623
-0.73119998 -0.47637999 -1.5651
-0.72898 -0.47696999 -1.5671
-0.72521001 -0.47648001 -1.5655
-0.72105998 -0.47573 -1.563
-0.71845001 -0.47604999 -1.564
-0.71622998 -0.47663 -1.566
-0.71170998 -0.4756 -1.5626
-0.70911002 -0.47591001 -1.5635999
-0.70613003 -0.47595 -1.5637
-0.70427001 -0.47679999 -1.5664999
-0.70090997 -0.47657001 -1.5658
-0.69792998 -0.47659999 -1.5659
-0.69383001 -0.47582999 -1.5633
-0.69123 -0.47613001 -1.5642999
-0.68936002 -0.47696999 -1.5671
-0.68454999 -0.47565001 -1.5627
-0.68194002 -0.47593999 -1.5637
-0.67934 -0.47624001 -1.5647
-0.67708999 -0.47681001 -1.5664999
-0.67448002 -0.47710001 -1.5675
-0.67044002 -0.47631001 -1.5649
-0.66676003 -0.47578001 -1.5632
-0.66308999 -0.47525001 -1.5614001
-0.66083997 -0.47580999 -1.5633
-0.65823001 -0.4761 -1.5642
-0.65562999 -0.47637999 -1.5652
-0.65302002 -0.47667 -1.5661
-0.64971 -0.47639999 -1.5652
-0.64744997 -0.47696 -1.567
-0.64450002 -0.47696 -1.5671
-0.64086002 -0.47641999 -1.5653
-0.63791001 -0.47641999 -1.5653
-0.63564003 -0.47696999 -1.5671
-0.63303 -0.47724 -1.568
-0.62941003 -0.47668999 -1.5662
-0.62546003 -0.47586 -1.5634
-0.62252998 -0.47586 -1.5634
-0.62058002 -0.47667 -1.5661
-0.61730999 -0.47639 -1.5652
-0.61470997 -0.47665 -1.566
-1.103 -0.47413999 -1.5631
-1.1004 -0.47465 -1.5648
-1.0956 -0.47420001 -1.5633
-1.0913 -0.47398001 -1.5626
-1.0876 -0.47400001 -1.5627
-1.0861 -0.47498 -1.5659
-1.0829999 -0.47523999 -1.5668
-1.0803 -0.47573999 -1.5684
-1.0728 -0.47404999 -1.5628
-1.0713 -0.47503 -1.5661
-1.0676 -0.47503999 -1.5661
-1.0623 -0.47431001 -1.5637
-1.0597 -0.47479999 -1.5653
-1.0565 -0.47503999 -1.5661
-1.0528001 -0.47503999 -1.5661
-1.0497 -0.47527999 -1.5669
-1.046 -0.47527 -1.5669
-1.0423 -0.47525999 -1.5668
-1.0381 -0.47499999 -1.566
-1.035 -0.47523001 -1.5667
-1.0308 -0.47496 -1.5659
-1.0276 -0.47519001 -1.5666
-1.0229 -0.47466999 -1.5649
-1.0187 -0.47440001 -1.564
-1.0151 -0.47437 -1.5639
-1.0140001 -0.47558001 -1.5678999
-1.0114 -0.47604001 -1.5694
-1.0052 -0.47477001 -1.5652
-1.0015 -0.47473001 -1.5651
-0.99685001 -0.47420001 -1.5633
-0.99423999 -0.47465 -1.5648
-0.99215001 -0.47536001 -1.5671
-0.98749 -0.47481 -1.5653
-0.98386002 -0.47476 -1.5652
-0.98074001 -0.47496 -1.5658
-0.97711998 -0.47490999 -1.5657001
-0.97451001 -0.47534999 -1.5671
-0.96987998 -0.47479999 -1.5653
-0.94011003 -0.46169001 -1.5221
-0.93757999 -0.46212 -1.5235
-0.93505001 -0.46254 -1.5249
-0.85038 -0.4341 -1.4311
-0.91977 -0.47205001 -1.5563
-0.92056 -0.47424999 -1.5635
-0.91843998 -0.47492 -1.5657001
-0.91535002 -0.47508001 -1.5662
-0.91178 -0.47499001 -1.5659
-0.90916997 -0.4754 -1.5673
-0.90513003 -0.47503999 -1.5661
-0.90205002 -0.4752 -1.5666
-0.89849001 -0.47509 -1.5663
-0.89587998 -0.47549999 -1.5676
-0.89091998 -0.47462001 -1.5647
-0.88738 -0.47451001 -1.5642999
-0.88151002 -0.47310999 -1.5597
-0.81987 -0.44086999 -1.4534
-0.79316002 -0.47257999 -1.558
-0.79141003 -0.47345999 -1.5609
-0.78965002 -0.47433999 -1.5638
-0.78452998 -0.47310999 -1.5597
-0.73763001 -0.44549999 -1.4687001
-0.68690997 -0.41521001 -1.3688999
-0.72696 -0.44244999 -1.4586999
-0.76999003 -0.47183999 -1.5556
-0.77069998 -0.4743 -1.5637
-0.76890999 -0.47516999 -1.5664999
-0.76630002 -0.47551 -1.5677
-0.76287001 -0.47532001 -1.567
-0.75945002 -0.47512999 -1.5664001
-0.75683999 -0.47545999 -1.5675
-0.75423002 -0.47578999 -1.5686001
-0.75081998 -0.47558999 -1.5678999
-0.7482 -0.47591999 -1.569
-0.74400002 -0.47519001 -1.5666
-0.74019998 -0.47472 -1.5650001
-0.73720002 -0.47477001 -1.5652
-0.73458999 -0.47510001 -1.5663
-0.73119998 -0.47488999 -1.5656
-0.72975999 -0.47600999 -1.5693001
-0.72597998 -0.47553 -1.5677
-0.72144002 -0.4745 -1.5642999
-0.71884 -0.47481999 -1.5654
-0.71585 -0.47487 -1.5655
-0.71285999 -0.47490999 -1.5657001
-0.70986998 -0.47494999 -1.5658
-0.70687997 -0.47499999 -1.566
-0.70464998 -0.47556999 -1.5678999
-0.70165998 -0.47560999 -1.568
-0.69905001 -0.47591999 -1.569
-0.69606 -0.47595 -1.5691
-0.69196999 -0.47516999 -1.5664999
-0.68972999 -0.47575 -1.5684
-0.68564999 -0.47496 -1.5659
-0.68267 -0.47499001 -1.5659
-0.68006003 -0.47529 -1.5669
-0.67745 -0.47558001 -1.5678999
-0.67339998 -0.47479001 -1.5653
-0.66935998 -0.47400001 -1.5627
-0.66711003 -0.47455999 -1.5645
-0.66415 -0.47457999 -1.5646
-0.66189998 -0.47514001 -1.5664001
-0.65964001 -0.47569001 -1.5683
-0.65632999 -0.47543001 -1.5674
-0.65302002 -0.47516999 -1.5664999
-0.65006 -0.47518 -1.5666
-0.64744997 -0.47545999 -1.5675
-0.64415002 -0.47519001 -1.5666
-0.64120001 -0.4752 -1.5666
-0.63824999 -0.4752 -1.5666
-0.63564003 -0.47547001 -1.5675
-0.63303 -0.47575 -1.5684
-0.62941003 -0.4752 -1.5666
-0.62580001 -0.47464001 -1.5648
-0.62318999 -0.47490999 -1.5657001
-0.62124002 -0.47573 -1.5684
-0.61862999 -0.47599 -1.5692
-0.61568999 -0.47598001 -1.5692
-0.61242002 -0.47569001 -1.5683
-1.1025 -0.47244 -1.5628
-1.0999 -0.47294 -1.5645
-1.0962 -0.47297001 -1.5646
-1.0924 -0.47299001 -1.5646
-1.0893 -0.47325 -1.5655
-1.0861 -0.47351 -1.5664001
-1.0835 -0.47400999 -1.568
-1.0792 -0.47378001 -1.5673
-1.0743999 -0.47330999 -1.5657001
-1.0718 -0.4738 -1.5673
-1.0676 -0.47356999 -1.5664999
-1.0628 -0.47308001 -1.5649
-1.0602 -0.47356999 -1.5666
-1.0576 -0.47406 -1.5682
-1.0523 -0.47332001 -1.5657001
-1.0491 -0.47356001 -1.5664999
-1.0465 -0.47404 -1.5681
-1.0423 -0.47378001 -1.5673
-1.0381 -0.47352999 -1.5664001
-1.0339 -0.47327 -1.5655
-1.0308 -0.47349 -1.5663
-1.0276 -0.47372001 -1.567
-1.024 -0.47369999 -1.567
-1.0197999 -0.47343001 -1.5661
-1.0156 -0.47315001 -1.5652
-1.0125 -0.47336999 -1.5659
-1.0082999 -0.47308999 -1.5650001
-1.0052 -0.47330001 -1.5657001
-1.002 -0.47351 -1.5664001
-0.99787998 -0.47321999 -1.5654
-0.99527001 -0.47367999 -1.5669
-0.99215001 -0.47387999 -1.5676
-0.98903 -0.47409001 -1.5683
-0.98589998 -0.47429001 -1.5689
-0.98124999 -0.47374001 -1.5671
-0.97661 -0.47319001 -1.5653
-0.97350001 -0.47338 -1.5659
-0.95877999 -0.46783 -1.5476
-0.93759 -0.45901 -1.5184
-0.89494997 -0.43941 -1.4535
-0.89253998 -0.43981001 -1.4549
-0.87392002 -0.43522999 -1.4397
-0.87154001 -0.43562001 -1.441
-0.92479002 -0.47143999 -1.5595
-0.92219001 -0.47185999 -1.5609
-0.91959 -0.47227001 -1.5623
-0.91987997 -0.47420999 -1.5687
-0.91775 -0.47488001 -1.5709
-0.91321999 -0.47428 -1.5689
-0.90965003 -0.47418001 -1.5686001
-0.90513003 -0.47356999 -1.5666
-0.90205002 -0.47372001 -1.5671
-0.89849001 -0.47362 -1.5667
-0.89541 -0.47376999 -1.5671999
-0.89186001 -0.47365999 -1.5668
-0.88738 -0.47304001 -1.5648
-0.81155002 -0.43325001 -1.4332
-0.79447001 -0.46998 -1.5547
-0.79484999 -0.47216001 -1.5619
-0.79141003 -0.47198999 -1.5613
-0.78711998 -0.47128999 -1.559
-0.68008 -0.40623 -1.3437999
-0.67786998 -0.40652999 -1.3448
-0.76933998 -0.46601999 -1.5416
-0.77797002 -0.47347 -1.5662
-0.77618998 -0.47433999 -1.5691
-0.77234 -0.47389001 -1.5676
-0.76890999 -0.47369999 -1.567
-0.76630002 -0.47404 -1.5681
-0.76205999 -0.47332001 -1.5657001
-0.75985998 -0.47391999 -1.5677
-0.75683999 -0.47398999 -1.5678999
-0.75423002 -0.47431999 -1.569
-0.75081998 -0.47411999 -1.5684
-0.7482 -0.47444999 -1.5695
-0.74400002 -0.47372001 -1.567
-0.74098998 -0.47378001 -1.5671999
-0.73799002 -0.47384 -1.5674
-0.73499 -0.47389001 -1.5676
-0.73158997 -0.47367999 -1.5669
-0.72898 -0.47400001 -1.568
-0.7256 -0.47378999 -1.5673
-0.72298998 -0.47409999 -1.5683
-0.72036999 -0.47442001 -1.5694
-0.71698999 -0.47420001 -1.5686001
-0.71324003 -0.47371 -1.567
-0.71025002 -0.47375 -1.5671
-0.70801002 -0.47433001 -1.5691
-0.70539999 -0.47464001 -1.5700999
-0.70129001 -0.47387001 -1.5675
-0.6983 -0.47389999 -1.5677
-0.69568998 -0.47420999 -1.5687
-0.69234002 -0.47397 -1.5678999
-0.68936002 -0.47400001 -1.568
-0.68601 -0.47376001 -1.5671999
-0.68304002 -0.47378999 -1.5673
-0.68006003 -0.47382 -1.5674
-0.67672998 -0.47356999 -1.5666
-0.67339998 -0.47332001 -1.5657001
-0.67008001 -0.47307 -1.5649
-0.66711003 -0.47308999 -1.5650001
-0.66522002 -0.47391999 -1.5677
-0.66295999 -0.47448 -1.5695
-0.66034001 -0.47476 -1.5705
-0.65667999 -0.47422999 -1.5687
-0.65372002 -0.47424001 -1.5688
-0.65109998 -0.47452 -1.5697
-0.64675999 -0.47343999 -1.5661
-0.64484 -0.47426999 -1.5689
-0.64187998 -0.47426999 -1.5689
-0.63927001 -0.47454 -1.5698
-0.63631999 -0.47454 -1.5698
-0.63370001 -0.47481999 -1.5707
-0.63075 -0.47481 -1.5707
-0.62580001 -0.47317001 -1.5652
-0.62318999 -0.47343999 -1.5661
-0.62156999 -0.47452 -1.5697
-0.61896002 -0.47479001 -1.5706
-0.61601001 -0.47477999 -1.5705
-0.61242002 -0.47422001 -1.5687
-1.1004 -0.47156999 -1.5658
-1.0978 -0.47207999 -1.5674
-1.0947 -0.47233999 -1.5683
-1.0904 -0.47211999 -1.5676
-1.085 -0.47141999 -1.5652
-1.0819 -0.47167999 -1.5661
-1.0792 -0.47217 -1.5677
-1.0761 -0.47242001 -1.5686001
-1.0724 -0.47242999 -1.5686001
-1.0692 -0.47268 -1.5694
-1.0661 -0.47293001 -1.5702
-1.0602 -0.47196001 -1.567
-1.0565 -0.47196001 -1.567
-1.0534 -0.47220001 -1.5678
-1.0497 -0.47218999 -1.5678
-1.046 -0.47218001 -1.5678
-1.0418 -0.47193 -1.5669
-1.0381 -0.47192001 -1.5669
-1.0334001 -0.47141001 -1.5652
-1.0302 -0.47163999 -1.566
-1.0287 -0.47260001 -1.5692
-1.0261 -0.47307 -1.5707
-1.0235 -0.47352999 -1.5723
-1.0197999 -0.47351 -1.5721999
-1.0151 -0.47299001 -1.5704
-1.0104001 -0.47246 -1.5687
-1.0067 -0.47242999 -1.5686001
-1.0041 -0.47288999 -1.5700999
-1.0005 -0.47284999 -1.5700001
-0.99733001 -0.47306001 -1.5707
-0.99419999 -0.47325999 -1.5714
-0.98903 -0.47246999 -1.5687
-0.98589998 -0.47266999 -1.5694
-0.98124999 -0.47213 -1.5676
-0.97864002 -0.47257 -1.5691
-0.97501999 -0.47251999 -1.5689
-0.96785998 -0.47071999 -1.5628999
-0.95670998 -0.46691999 -1.5503
-0.93557 -0.45811999 -1.5211
-0.91153997 -0.44780001 -1.4868
-0.83873999 -0.41596001 -1.3811001
-0.91895998 -0.45820999 -1.5214
-0.84065002 -0.42624 -1.4152
-0.92268002 -0.47049999 -1.5622
-0.92201 -0.47193 -1.5669
-0.91939998 -0.47233999 -1.5683
-0.91775 -0.47325999 -1.5714
-0.91417003 -0.47317001 -1.5711
-0.91156 -0.47358 -1.5724
-0.90846002 -0.47374001 -1.5729001
-0.90583998 -0.47413999 -1.5743001
-0.90227002 -0.47404 -1.5739
-0.89918 -0.47419 -1.5743999
-0.89279997 -0.47255999 -1.569
-0.88784999 -0.47167999 -1.5661
-0.84653002 -0.45091 -1.4971
-0.77787 -0.45820001 -1.5214
-0.79231 -0.46899 -1.5572
-0.79013997 -0.46959999 -1.5592
-0.78586 -0.4689 -1.5569
-0.68092 -0.40537 -1.346
-0.67870998 -0.40566999 -1.3469
-0.77309 -0.46678999 -1.5499001
-0.77880001 -0.47238001 -1.5684
-0.77701998 -0.47325 -1.5713
-0.77315998 -0.47279999 -1.5698
-0.76972997 -0.47261 -1.5692
-0.76712 -0.47295001 -1.5703
-0.76287001 -0.47224 -1.568
