# .PCD v0.7 - Point Cloud Data file format
VERSION 0.7
FIELDS x y z
SIZE 4 4 4
TYPE F F F
COUNT 1 1 1
WIDTH 1591
HEIGHT 1
VIEWPOINT 0 0 0 1 0 0 0
POINTS 1591
DATA ascii
-0.10845 -0.38486999 -1.7328
-0.10561 -0.38510001 -1.7338001
-0.10275 -0.38488001 -1.7328
-0.099901997 -0.38510001 -1.7338001
-0.60961002 -0.38370001 -1.7357
-0.60615999 -0.38348001 -1.7347
-0.60271001 -0.38326001 -1.7337
-0.59898001 -0.38282999 -1.7318
-0.59613001 -0.38302001 -1.7326
-0.59328002 -0.38321 -1.7335
-0.59043002 -0.38339001 -1.7343
-0.58785999 -0.38378999 -1.7361
-0.58472002 -0.38376001 -1.7359999
-0.58157998 -0.38374001 -1.7359
-0.57788002 -0.38330001 -1.7339
-0.57446003 -0.38306999 -1.7328
-0.57160997 -0.38325 -1.7337
-0.56904 -0.38363001 -1.7354
-0.56590998 -0.3836 -1.7352999
-0.56222999 -0.38316 -1.7332
-0.55937999 -0.38332999 -1.734
-0.55653 -0.38350001 -1.7348
-0.55313998 -0.38326001 -1.7337
-0.55001998 -0.38321999 -1.7336
-0.54795998 -0.38402 -1.7372
-0.54457998 -0.38376999 -1.7359999
-0.54145998 -0.38372999 -1.7359
-0.53834999 -0.38369 -1.7357
-0.53522998 -0.38365 -1.7355
-0.53185999 -0.38339001 -1.7343
-0.52850002 -0.38314 -1.7332
-0.52565002 -0.38330001 -1.7339
-0.52280003 -0.38345999 -1.7345999
-0.52019 -0.38383001 -1.7363
-0.51659 -0.38336 -1.7342
-0.51374 -0.38352001 -1.7349
-0.50989997 -0.38284001 -1.7318
-0.50704998 -0.38299999 -1.7325
-0.50445002 -0.38336 -1.7342
-0.50182998 -0.38372001 -1.7358
-0.49922001 -0.38407999 -1.7374001
-0.49636 -0.38422999 -1.7381001
-0.49349999 -0.38438001 -1.7388
-0.48947001 -0.38348001 -1.7347
-0.48684999 -0.38383999 -1.7363
-0.48376 -0.38378 -1.7361
-0.48045 -0.38350001 -1.7348
-0.47736999 -0.38343999 -1.7345001
-0.47452 -0.38358 -1.7352
-0.47143999 -0.38350999 -1.7348
-0.46680999 -0.38196999 -1.7279
-0.46375 -0.38189 -1.7275
-0.46156999 -0.38266 -1.7309999
-0.46024001 -0.38428 -1.7383
-0.45695001 -0.38398999 -1.737
-0.45344999 -0.38349 -1.7348
-0.45017001 -0.38321 -1.7335
-0.44732001 -0.38334 -1.7341
-0.44468001 -0.38367999 -1.7356
-0.44161999 -0.3836 -1.7352999
-0.43814999 -0.38308999 -1.733
-0.43529999 -0.38321999 -1.7336
-0.43245 -0.38335001 -1.7341
-0.43019 -0.38411 -1.7376
-0.42594999 -0.38275 -1.7314
-0.4235 -0.38330001 -1.7339
-0.42026001 -0.38299999 -1.7325
-0.41797999 -0.38376001 -1.7359999
-0.41475001 -0.38345 -1.7345999
-0.41207999 -0.38378 -1.7361
-0.40885001 -0.38348001 -1.7347
-0.40619001 -0.38381001 -1.7362
-0.40351 -0.38414001 -1.7377
-0.40066001 -0.38424999 -1.7381999
-0.39743 -0.38394001 -1.7368
-0.3944 -0.38383999 -1.7363
-0.39083001 -0.3831 -1.733
-0.38798001 -0.38321 -1.7335
-0.38479 -0.3829 -1.7321
-0.38211 -0.38321999 -1.7335
-0.37891999 -0.3829 -1.7321
-0.37656999 -0.38363999 -1.7354
-0.37355 -0.38352999 -1.735
-0.37053001 -0.38341999 -1.7345001
-0.36719 -0.38288999 -1.732
-0.36482999 -0.38363001 -1.7354
-0.36164999 -0.38330001 -1.7339
-0.35912001 -0.38383001 -1.7363
-0.35595 -0.38350001 -1.7348
-0.35341001 -0.38402 -1.7372
-0.34994 -0.38327 -1.7337
-0.34707999 -0.38336 -1.7342
-0.34408 -0.38324001 -1.7336
-0.34138 -0.38354999 -1.735
-0.33910999 -0.38449001 -1.7393
-0.33610001 -0.38437 -1.7387
-0.33282 -0.38382 -1.7362
-0.32995999 -0.38391 -1.7366
-0.32683 -0.38356999 -1.7351
-0.32396999 -0.38365 -1.7355
-0.32085001 -0.38330999 -1.7339
-0.31799001 -0.38339001 -1.7343
-0.31527001 -0.38369 -1.7357
-0.31255001 -0.38398999 -1.737
-0.30994999 -0.38449001 -1.7393
-0.30671 -0.38393 -1.7368
-0.30397999 -0.38422 -1.7381001
-0.30098999 -0.38409001 -1.7375
-0.29837999 -0.38459 -1.7397
-0.29516 -0.38403001 -1.7372
-0.29205999 -0.38367 -1.7356
-0.28920999 -0.38374001 -1.7359
-0.28612 -0.38339001 -1.7343
-0.28349999 -0.38389 -1.7366
-0.28042001 -0.38352999 -1.7349
-0.27789 -0.38424 -1.7381001
-0.27502999 -0.38431001 -1.7385
-0.27206999 -0.38416001 -1.7378
-0.26910001 -0.38400999 -1.7371
-0.26583999 -0.38321999 -1.7335
-0.26298001 -0.38328001 -1.7338001
-0.26043001 -0.38398001 -1.737
-0.25748 -0.38383001 -1.7363
-0.25453001 -0.38367999 -1.7356
-0.25158 -0.38352001 -1.7349
-0.24872001 -0.38358 -1.7352
-0.24586999 -0.38363001 -1.7354
-0.24293 -0.38347 -1.7347
-0.24016 -0.38374001 -1.7359
-0.23722 -0.38358 -1.7352
-0.23436999 -0.38363001 -1.7354
-0.23142999 -0.38347 -1.7347
-0.22849999 -0.38330999 -1.7339
-0.22564 -0.38335001 -1.7341
-0.22287001 -0.38361999 -1.7352999
-0.22024 -0.38431001 -1.7385
-0.21716 -0.38371 -1.7358
-0.21431001 -0.38376001 -1.7359999
-0.21131 -0.38337001 -1.7342
-0.2086 -0.38383999 -1.7363
-0.20567 -0.38367 -1.7356
-0.20282 -0.38371 -1.7357
-0.20009001 -0.38418001 -1.7379
-0.19711 -0.38378999 -1.7361
-0.19419 -0.38361001 -1.7352999
-0.19140001 -0.38385999 -1.7364
-0.18849 -0.38367999 -1.7356
-0.18562999 -0.38371 -1.7358
-0.18272001 -0.38352999 -1.7349
-0.18007 -0.38442001 -1.739
-0.17721 -0.38444999 -1.7391
-0.17431 -0.38427001 -1.7383
-0.1714 -0.38407999 -1.7374001
-0.16854 -0.38411 -1.7376
-0.16568001 -0.38414001 -1.7377
-0.16275001 -0.38372999 -1.7358
-0.15989 -0.38374999 -1.7359999
-0.15704 -0.38378 -1.7361
-0.15411 -0.38337001 -1.7342
-0.15126 -0.38339001 -1.7343
-0.14838 -0.38319001 -1.7334
-0.14567 -0.38429001 -1.7384
-0.14275999 -0.38387999 -1.7365
-0.1399 -0.38389 -1.7366
-0.13707 -0.38411999 -1.7376
-0.13418999 -0.38392001 -1.7367001
-0.13133 -0.38394001 -1.7368
-0.12846 -0.38372999 -1.7359
-0.1256 -0.38374001 -1.7359
-0.12278 -0.38418999 -1.7379
-0.11993 -0.38440999 -1.7388999
-0.11706 -0.38420001 -1.738
-0.1142 -0.38420999 -1.738
-0.11132 -0.38356999 -1.7351
-0.10848 -0.38400999 -1.7371
-0.10561 -0.38358 -1.7352
-0.10276 -0.38400999 -1.7371
-0.099905998 -0.3838 -1.7362
-0.61019999 -0.38236001 -1.738
-0.60734999 -0.38255 -1.7388
-0.60418999 -0.38253999 -1.7388
-0.60044998 -0.38211 -1.7368
-0.59729999 -0.38209 -1.7368
-0.59415001 -0.38207999 -1.7367001
-0.59072 -0.38185 -1.7356
-0.58785999 -0.38203999 -1.7365
-0.58442998 -0.38181001 -1.7354
-0.58130002 -0.38178 -1.7352999
-0.5776 -0.38135001 -1.7334
-0.57446003 -0.38132 -1.7332
-0.57189 -0.38170001 -1.735
-0.56932002 -0.38209 -1.7367001
-0.56590998 -0.38185 -1.7357
-0.56251001 -0.38161001 -1.7345999
-0.55937999 -0.38158 -1.7344
-0.55653 -0.38174999 -1.7352
-0.55260003 -0.3811 -1.7322
-0.55028999 -0.38168001 -1.7349
-0.54822999 -0.38247001 -1.7385
-0.54536998 -0.38264 -1.7392
-0.54198998 -0.38238999 -1.7381001
-0.53860998 -0.38214999 -1.737
-0.53496999 -0.38169 -1.7349
-0.53135002 -0.38123 -1.7328
-0.52850002 -0.38139001 -1.7336
-0.52616 -0.38196999 -1.7362
-0.52329999 -0.38213 -1.7369
-0.52069002 -0.38249999 -1.7386
-0.51683998 -0.38181999 -1.7355
-0.51374 -0.38177001 -1.7352999
-0.51087999 -0.38192999 -1.7359999
-0.50827003 -0.38229001 -1.7376
-0.50516999 -0.38223001 -1.7374001
-0.50256002 -0.38260001 -1.739
-0.49970001 -0.38275 -1.7397
-0.4966 -0.38269001 -1.7395
-0.49349999 -0.38262999 -1.7392
-0.48993999 -0.38214999 -1.737
-0.48708001 -0.38229999 -1.7377
-0.48376 -0.38203001 -1.7364
-0.48091 -0.38216999 -1.7371
-0.47804999 -0.38231 -1.7378
-0.47474 -0.38203999 -1.7365
-0.47165999 -0.38196999 -1.7362
-0.46858999 -0.38190001 -1.7359
-0.46595001 -0.38225001 -1.7375
-0.46266001 -0.38196999 -1.7362
-0.45958999 -0.38189 -1.7358
-0.45673001 -0.38203001 -1.7365
-0.45409 -0.38237 -1.738
-0.45122999 -0.38251001 -1.7386
-0.44837001 -0.38264 -1.7392
-0.44530001 -0.38256001 -1.7388999
-0.44224 -0.38248 -1.7385
-0.43876001 -0.38198 -1.7362
-0.43529999 -0.38146999 -1.7339
-0.43224999 -0.38139001 -1.7336
-0.4294 -0.38150999 -1.7341
-0.42655 -0.38163999 -1.7347
-0.4235 -0.38155001 -1.7343
-0.42045 -0.38146001 -1.7339
-0.41797999 -0.382 -1.7364
-0.41532001 -0.38234001 -1.7379
-0.41264999 -0.38266999 -1.7394
-0.40979001 -0.38277999 -1.7399
-0.40711001 -0.38310999 -1.7414
-0.40406999 -0.38302001 -1.7409
-0.40066001 -0.38249999 -1.7386
-0.39725 -0.38198 -1.7362
-0.3944 -0.38209 -1.7367001
-0.39153999 -0.3822 -1.7372
-0.38850999 -0.38209999 -1.7368
-0.38530999 -0.38178 -1.7352999
-0.38245001 -0.38189 -1.7358
-0.37926 -0.38157001 -1.7344
-0.37656999 -0.38189 -1.7358
-0.37355 -0.38178 -1.7352999
-0.37103 -0.38231 -1.7377
-0.36801001 -0.3822 -1.7372
-0.36499 -0.38209 -1.7367001
-0.36181 -0.38177001 -1.7352999
-0.35942999 -0.38249999 -1.7386
-0.35688999 -0.38302001 -1.7410001
-0.35372001 -0.3827 -1.7395
-0.35084999 -0.38279 -1.7399
-0.34768999 -0.38246 -1.7384
-0.34437999 -0.38192001 -1.7359999
-0.34153 -0.38201001 -1.7364
-0.33853 -0.38189 -1.7358
-0.33581999 -0.38218999 -1.7372
-0.33296001 -0.38227999 -1.7376
-0.32995999 -0.38214999 -1.737
-0.32710001 -0.38224 -1.7374001
-0.32425001 -0.38233 -1.7378
-0.32152 -0.38262001 -1.7392
-0.31852999 -0.38249999 -1.7386
-0.31540999 -0.38214999 -1.737
-0.31268001 -0.38245001 -1.7384
-0.30982 -0.38253 -1.7387
-0.30695999 -0.38260999 -1.7391
-0.30397999 -0.38247001 -1.7385
-0.30098999 -0.38233 -1.7379
-0.29813001 -0.38240999 -1.7381999
-0.29516 -0.38227001 -1.7376
-0.29229999 -0.38235 -1.7379
-0.28920999 -0.38198999 -1.7363
-0.28635001 -0.38205999 -1.7366
-0.28349999 -0.38213 -1.7369
-0.28086001 -0.38262999 -1.7392
-0.278 -0.3827 -1.7395
-0.27513999 -0.38277 -1.7398
-0.27217001 -0.38262001 -1.7391
-0.26910001 -0.38225999 -1.7375
-0.26614001 -0.38211 -1.7368
-0.26309001 -0.38174 -1.7352
-0.26032999 -0.38202 -1.7364
-0.25748 -0.38207999 -1.7367001
-0.25481001 -0.38257 -1.7388999
-0.25195 -0.38262001 -1.7392
-0.24890999 -0.38225001 -1.7375
-0.24578001 -0.38167 -1.7348
-0.24284001 -0.38150999 -1.7341
-0.24033 -0.38242 -1.7381999
-0.23695999 -0.38119 -1.7326
-0.23436999 -0.38187999 -1.7358
-0.23151 -0.38192999 -1.7359999
-0.22866 -0.38198 -1.7363
-0.22572 -0.38181999 -1.7355
-0.22295 -0.38207999 -1.7367001
-0.22024 -0.38256001 -1.7388999
-0.21731 -0.38238999 -1.7381001
-0.21452001 -0.38264999 -1.7393
-0.21179999 -0.38312 -1.7414
-0.20900001 -0.38338 -1.7426
-0.20581 -0.38235 -1.7379
-0.20295 -0.38238999 -1.7381001
-0.20022 -0.38284999 -1.7402
-0.19723 -0.38246 -1.7384
-0.19425 -0.38207 -1.7367001
-0.19140001 -0.38211 -1.7368
-0.1886 -0.38236001 -1.7379
-0.18573999 -0.38238999 -1.7381001
-0.18288 -0.38242 -1.7381999
-0.18002 -0.38245001 -1.7384
-0.17712 -0.38227001 -1.7376
-0.17421 -0.38209 -1.7367001
-0.1714 -0.38233 -1.7378
-0.16854 -0.38236001 -1.7379
-0.16573 -0.38260001 -1.739
-0.16287 -0.38262001 -1.7392
-0.16001 -0.38264999 -1.7393
-0.15715 -0.38266999 -1.7394
-0.15418001 -0.38205001 -1.7365
-0.15143 -0.38271001 -1.7395999
-0.1486 -0.38295001 -1.7406
-0.14579 -0.38339999 -1.7427
-0.14284 -0.38277 -1.7398
-0.13995001 -0.38257 -1.7388999
-0.13707 -0.38237 -1.738
-0.13424 -0.38260001 -1.7391
-0.13135 -0.38240001 -1.7381001
-0.12852 -0.38262999 -1.7392
-0.12566 -0.38264 -1.7392
-0.12278 -0.38242999 -1.7383
-0.11991 -0.38223001 -1.7374001
-0.11705 -0.38224 -1.7374001
-0.11421 -0.38266999 -1.7394
-0.11138 -0.38332 -1.7423
-0.10849 -0.38268 -1.7394
-0.10562 -0.38203999 -1.7365
-0.10276 -0.38203999 -1.7365
-0.099910997 -0.38269001 -1.7395
-0.60991001 -0.3804 -1.7374001
-0.60734999 -0.38079 -1.7392
-0.60448998 -0.38098001 -1.7401
-0.60192001 -0.38137001 -1.7419
-0.59846997 -0.38115001 -1.7409
-0.59502 -0.38093001 -1.7399
-0.59100997 -0.38029999 -1.737
-0.58901 -0.3811 -1.7406
-0.58586001 -0.38106999 -1.7405
-0.58214998 -0.38064 -1.7385
-0.57872999 -0.38040999 -1.7375
-0.57530999 -0.38018 -1.7364
-0.57217002 -0.38014999 -1.7363
-0.56932002 -0.38033 -1.7371
-0.56700999 -0.38091999 -1.7398
-0.56414998 -0.38108999 -1.7406
-0.56102002 -0.38106 -1.7404
-0.55787998 -0.38102999 -1.7403001
-0.55475003 -0.38099 -1.7401
-0.55216002 -0.38137001 -1.7419
-0.54876 -0.38112 -1.7407
-0.54589999 -0.38128999 -1.7415
-0.54250997 -0.38104999 -1.7404
-0.53860998 -0.38038999 -1.7374001
-0.53627002 -0.38095999 -1.74
-0.53289002 -0.38071001 -1.7388999
-0.52951998 -0.38045999 -1.7377
-0.52640998 -0.38042 -1.7375
-0.52380002 -0.38078001 -1.7392
-0.52094001 -0.38093999 -1.7399
-0.51683998 -0.38005999 -1.7359
-0.51374 -0.38001001 -1.7357
-0.51087999 -0.38016999 -1.7364
-0.50827003 -0.38053 -1.738
-0.50638002 -0.38150999 -1.7424999
-0.50304002 -0.38124999 -1.7413
-0.49992999 -0.38119 -1.7411
-0.49612001 -0.38051 -1.738
-0.49349999 -0.38087001 -1.7395999
-0.49064001 -0.38102001 -1.7403001
-0.48778 -0.38115999 -1.7409
-0.48514 -0.38152 -1.7424999
-0.48159 -0.38102999 -1.7403001
-0.47828001 -0.38076001 -1.7391
-0.47519001 -0.38069001 -1.7388
-0.47189 -0.38042 -1.7375
-0.46902999 -0.38056001 -1.7381999
-0.46639001 -0.3809 -1.7397
-0.46287999 -0.38042 -1.7375
-0.46002001 -0.38055 -1.7381001
-0.45716 -0.38069001 -1.7388
-0.45429999 -0.38082001 -1.7394
-0.45144001 -0.38095 -1.74
-0.44837001 -0.38088 -1.7395999
-0.44593 -0.38143 -1.7421
-0.44327 -0.38176 -1.7437
-0.43999001 -0.38146999 -1.7423
-0.43610999 -0.38055 -1.7381001
-0.43325001 -0.38067999 -1.7387
-0.43039 -0.38080999 -1.7393
-0.42693999 -0.38029999 -1.737
-0.42368999 -0.38 -1.7356
-0.42063999 -0.37992001 -1.7352
-0.41797999 -0.38025001 -1.7367001
-0.41551 -0.38078001 -1.7392
-0.41227001 -0.38047999 -1.7378
-0.40922999 -0.38038999 -1.7374001
-0.40637001 -0.38051 -1.7379
-0.40351 -0.38062 -1.7385
-0.40066001 -0.38073999 -1.739
-0.39761001 -0.38064 -1.7385
-0.39458001 -0.38054001 -1.7381001
-0.3919 -0.38086 -1.7395
-0.38903999 -0.38097 -1.74
-0.38600001 -0.38087001 -1.7395999
-0.38314 -0.38097 -1.7401
-0.38011 -0.38087001 -1.7395999
-0.37707999 -0.38076001 -1.7391
-0.37404999 -0.38066 -1.7386
-0.37152001 -0.38117999 -1.7410001
-0.36849999 -0.38106999 -1.7405
-0.36546999 -0.38095999 -1.74
-0.36261001 -0.38106 -1.7405
-0.35975 -0.38115999 -1.7409
-0.35703999 -0.38146999 -1.7423
-0.35372001 -0.38093001 -1.7399
-0.3504 -0.38038999 -1.7374001
-0.34768999 -0.38069999 -1.7388
-0.34483001 -0.38079 -1.7392
-0.34211999 -0.3811 -1.7406
-0.33882001 -0.38055 -1.7381001
-0.33610001 -0.38084999 -1.7395
-0.33324 -0.38093999 -1.7399
-0.33052 -0.38124001 -1.7413
-0.32752001 -0.38112 -1.7407
-0.32438001 -0.38078001 -1.7392
-0.32166001 -0.38106999 -1.7405
-0.31865999 -0.38095 -1.7399
-0.31580001 -0.38102999 -1.7403001
-0.31281 -0.3809 -1.7397
-0.31020999 -0.38139999 -1.742
-0.30746999 -0.38169 -1.7433
-0.30423 -0.38113001 -1.7408
-0.30098999 -0.38056999 -1.7381999
-0.29813001 -0.38065001 -1.7386
-0.29552001 -0.38115001 -1.7409
-0.29254001 -0.38101 -1.7402
-0.28944001 -0.38066 -1.7386
-0.28681001 -0.38115001 -1.7409
-0.28406 -0.38144001 -1.7422
-0.28119999 -0.38150999 -1.7424999
-0.27833 -0.38157001 -1.7428
-0.27557001 -0.38185 -1.7441
-0.27248999 -0.38150001 -1.7424001
-0.26952001 -0.38135001 -1.7418
-0.26655999 -0.38119999 -1.7411
-0.26348999 -0.38084 -1.7394
-0.26063001 -0.3809 -1.7397
-0.25766999 -0.38073999 -1.739
-0.25490999 -0.38102001 -1.7403001
-0.25213999 -0.38128999 -1.7415
-0.24928001 -0.38135001 -1.7418
-0.2465 -0.38161999 -1.743
-0.24355 -0.38146001 -1.7423
-0.24067999 -0.38150999 -1.7424999
-0.23739 -0.38049999 -1.7379
-0.23469999 -0.38098001 -1.7401
-0.23184 -0.38102999 -1.7403001
-0.22898 -0.38108 -1.7405
-0.22604001 -0.38091001 -1.7398
-0.22325 -0.38117 -1.7410001
-0.22054 -0.38165 -1.7431
-0.21723001 -0.38040999 -1.7375
-0.21466 -0.38130999 -1.7416
-0.21194001 -0.38178 -1.7437
-0.20907 -0.38181999 -1.7438999
-0.2062 -0.38185999 -1.7441
-0.20327 -0.38169 -1.7433
-0.20034 -0.38152 -1.7424999
-0.19741 -0.38134 -1.7417001
-0.19430999 -0.38051999 -1.738
-0.19151001 -0.38077 -1.7392
-0.18888 -0.38166001 -1.7431999
-0.18601 -0.38170001 -1.7434
-0.18309 -0.38152 -1.7424999
-0.18017 -0.38133001 -1.7417001
-0.17731 -0.38135999 -1.7418
-0.17434999 -0.38097 -1.74
-0.17158 -0.38141999 -1.7421
-0.16863 -0.38102001 -1.7403001
-0.16576999 -0.38104999 -1.7404
-0.16287 -0.38086 -1.7395
-0.16001 -0.38088 -1.7397
-0.15726 -0.38155001 -1.7427
-0.15439001 -0.38157001 -1.7428
-0.15146001 -0.38115999 -1.7409
-0.14856 -0.38097 -1.74
-0.14573 -0.38119999 -1.7411
-0.14286999 -0.38122001 -1.7412
-0.14003 -0.38145 -1.7422
-0.13714001 -0.38124999 -1.7413
-0.13428 -0.38126999 -1.7414
-0.1314 -0.38106999 -1.7405
-0.12852 -0.38086 -1.7395999
-0.12566 -0.38088 -1.7395999
-0.12279 -0.38089001 -1.7397
-0.11995 -0.38111001 -1.7407
-0.11707 -0.3809 -1.7397
-0.11425 -0.38155001 -1.7427
-0.11138 -0.38156 -1.7427
-0.10853 -0.38198999 -1.7447
-0.10565 -0.38157001 -1.7428
-0.10279 -0.382 -1.7447
-0.099914998 -0.38135999 -1.7418
-0.61110002 -0.3795 -1.7415
-0.60764003 -0.37928 -1.7405
-0.60536999 -0.37988001 -1.7433
-0.60280001 -0.38027 -1.7451
-0.59964001 -0.38025001 -1.745
-0.5959 -0.37983 -1.743
-0.59187001 -0.37920001 -1.7401
-0.58929998 -0.37957999 -1.7419
-0.58586001 -0.37935999 -1.7409
-0.583 -0.37954 -1.7417001
-0.57957 -0.37931001 -1.7407
-0.57670999 -0.37948999 -1.7415
-0.57384998 -0.37966999 -1.7423
-0.57069999 -0.37964001 -1.7422
-0.56756002 -0.37961 -1.742
-0.56470001 -0.37977999 -1.7428
-0.56155998 -0.37975001 -1.7427
-0.55870003 -0.37992999 -1.7435
-0.55528998 -0.37968999 -1.7424001
-0.55216002 -0.37965 -1.7422
-0.54903001 -0.37961 -1.7421
-0.54642999 -0.37999001 -1.7438
-0.54408002 -0.38056001 -1.7464
-0.53939003 -0.37929001 -1.7406
-0.53601003 -0.37904 -1.7394
-0.53289002 -0.37900001 -1.7392
-0.53003001 -0.37915999 -1.74
-0.52717 -0.37932 -1.7407
-0.52430999 -0.37948 -1.7415
-0.52144003 -0.37964001 -1.7422
-0.51832998 -0.37959 -1.742
-0.51472998 -0.37913001 -1.7398
-0.51210999 -0.37948999 -1.7415
-0.50875998 -0.37922999 -1.7403001
-0.50613999 -0.37959 -1.7419
-0.50279999 -0.37933001 -1.7407
-0.49946001 -0.37906 -1.7395
-0.4966 -0.37921 -1.7402
-0.49373999 -0.37935999 -1.7409
-0.49064001 -0.3793 -1.7406
-0.48778 -0.37944999 -1.7413
-0.48537001 -0.38001001 -1.7438999
-0.48227999 -0.37994 -1.7436
-0.47872999 -0.37946001 -1.7414
-0.47564 -0.37940001 -1.7411
-0.47277999 -0.37954 -1.7417001
-0.47014001 -0.37988001 -1.7433
-0.46704999 -0.37981001 -1.743
-0.46397001 -0.37974 -1.7427
-0.46110001 -0.37988001 -1.7433
-0.45824 -0.38001001 -1.7438999
-0.45515001 -0.37994 -1.7436
-0.45186999 -0.37966001 -1.7423
-0.44858 -0.37937 -1.7409
-0.44613001 -0.37992001 -1.7435
-0.44286001 -0.37963 -1.7421
-0.43999001 -0.37976 -1.7427
-0.43713 -0.37988001 -1.7433
-0.43426001 -0.38001001 -1.7438999
-0.43138999 -0.38012999 -1.7445
-0.42831999 -0.38005 -1.7441
-0.42506 -0.37976 -1.7427
-0.42122999 -0.37882999 -1.7385
-0.41856 -0.37915999 -1.74
-0.41569999 -0.37928 -1.7405
-0.41246 -0.37898001 -1.7392
-0.41016001 -0.37972 -1.7426
-0.40693 -0.37942001 -1.7412
-0.40425 -0.37975001 -1.7427
-0.40084001 -0.37922999 -1.7403001
-0.39798 -0.37933999 -1.7408
-0.39458001 -0.37882999 -1.7384
-0.39207 -0.37935999 -1.7409
-0.38920999 -0.37946001 -1.7414
-0.38635001 -0.37957001 -1.7419
-0.38348001 -0.37968001 -1.7424001
-0.38062 -0.37979001 -1.7429
-0.37742001 -0.37946999 -1.7414
-0.37455001 -0.37957001 -1.7419
-0.37169001 -0.37968001 -1.7424001
-0.36915001 -0.3802 -1.7447
-0.36627999 -0.38029999 -1.7452
-0.36293 -0.37977001 -1.7428
-0.35975 -0.37944999 -1.7413
-0.35688999 -0.37954 -1.7417001
-0.35387 -0.37943 -1.7412
-0.35055 -0.37889001 -1.7388
-0.34784001 -0.37920001 -1.7401
-0.34498 -0.37929001 -1.7406
-0.34211999 -0.37937999 -1.7410001
-0.33926001 -0.37946999 -1.7414
-0.33625001 -0.37935001 -1.7409
-0.33339 -0.37944001 -1.7413
-0.33052 -0.37953001 -1.7417001
-0.32780001 -0.37981999 -1.743
-0.32466 -0.37948999 -1.7415
-0.32179999 -0.37957001 -1.7419
-0.31907001 -0.37986001 -1.7431999
-0.31580001 -0.37931001 -1.7407
-0.31345999 -0.38023999 -1.7449
-0.31033999 -0.37990001 -1.7434
-0.30746999 -0.37997001 -1.7437
-0.30434999 -0.37963 -1.7421
-0.30124 -0.37928 -1.7406
-0.2985 -0.37957001 -1.7419
-0.29576001 -0.37986001 -1.7431999
-0.29289001 -0.37992999 -1.7435
-0.29001999 -0.38 -1.7438
-0.28716001 -0.38007 -1.7442
-0.28406 -0.37972 -1.7426
-0.28119999 -0.37979001 -1.7429
-0.27833 -0.37986001 -1.7431999
-0.27568001 -0.38034999 -1.7454
-0.27271 -0.3802 -1.7448
-0.26993999 -0.38047999 -1.7460001
-0.26666 -0.37968999 -1.7424001
-0.26368999 -0.37955001 -1.7417001
-0.26082999 -0.37961 -1.742
-0.25795999 -0.37966999 -1.7423
-0.25510001 -0.37972999 -1.7426
-0.25233001 -0.38 -1.7438
-0.24928001 -0.37963 -1.7421
-0.2465 -0.37990001 -1.7434
-0.24364001 -0.37994999 -1.7436
-0.24086 -0.38022 -1.7448
-0.2379 -0.38005999 -1.7441
-0.23503999 -0.38011 -1.7443
-0.23209 -0.37994999 -1.7436
-0.22930001 -0.38021001 -1.7448
-0.22634999 -0.38005 -1.7441
-0.22356001 -0.38031 -1.7453001
-0.22062001 -0.38014001 -1.7445
-0.21766999 -0.37998 -1.7437
-0.21473999 -0.37981001 -1.743
-0.21194001 -0.38005999 -1.7441
-0.20907 -0.38010001 -1.7443
-0.20626999 -0.38036001 -1.7455
-0.20345999 -0.38060999 -1.7466
-0.20052999 -0.38044 -1.7458
-0.19754 -0.38005 -1.7441
-0.19449 -0.37944999 -1.7413
-0.19174001 -0.37990999 -1.7434
-0.18899 -0.38036999 -1.7455
-0.18612 -0.3804 -1.7457
-0.1832 -0.38022 -1.7449
-0.18032999 -0.38025999 -1.745
-0.17741001 -0.38007 -1.7442
-0.17454 -0.38010001 -1.7443
-0.17163 -0.37992001 -1.7435
-0.16876 -0.37994999 -1.7436
-0.16588999 -0.37997001 -1.7437
-0.16299 -0.37977999 -1.7428
-0.16023999 -0.38045001 -1.7459
-0.15737 -0.38047001 -1.7460001
-0.15457 -0.38091999 -1.748
-0.15162 -0.38051 -1.7462
-0.14862999 -0.37968001 -1.7424001
-0.14561 -0.37863001 -1.7376
-0.14284 -0.37929001 -1.7406
-0.14005999 -0.37994999 -1.7436
-0.13719 -0.37996 -1.7437
-0.13433 -0.37998 -1.7437
-0.13147999 -0.3802 -1.7448
-0.12864999 -0.38064 -1.7467999
-0.12579 -0.38086 -1.7478
-0.12287 -0.38023999 -1.7449
-0.11998 -0.37981999 -1.743
-0.11711 -0.37983 -1.743
-0.11426 -0.38005 -1.7441
-0.1114 -0.38027 -1.7451
-0.10852 -0.38005999 -1.7441
-0.10565 -0.38005999 -1.7441
-0.10279 -0.38005999 -1.7441
-0.099918 -0.38007 -1.7441
-0.61199999 -0.37841001 -1.7447
-0.60913002 -0.3786 -1.7456
-0.60566998 -0.37838 -1.7446001
-0.60280001 -0.37856999 -1.7454
-0.59934998 -0.37834999 -1.7444
-0.5959 -0.37812999 -1.7434
-0.59245002 -0.37790999 -1.7424001
-0.58929998 -0.37788999 -1.7423
-0.58586001 -0.37766001 -1.7413
-0.583 -0.37784001 -1.7421
-0.57928997 -0.37740999 -1.7401
-0.57726997 -0.37819999 -1.7437
-0.57413 -0.37817001 -1.7436
-0.57125998 -0.37834999 -1.7444
-0.56756002 -0.37790999 -1.7424001
-0.56497002 -0.37829 -1.7442
-0.56211001 -0.37845999 -1.745
-0.55896997 -0.37843001 -1.7448
-0.55583 -0.3784 -1.7446001
-0.55216002 -0.37795001 -1.7426
-0.54929 -0.37812001 -1.7434
-0.54694998 -0.37869999 -1.7460001
-0.54356003 -0.37845001 -1.7449
-0.54095 -0.37882 -1.7466
-0.53678 -0.37796 -1.7426
-0.53315002 -0.37751001 -1.7406
-0.53053999 -0.37788001 -1.7422
-0.52793002 -0.37823999 -1.7438999
-0.52506 -0.3784 -1.7447
-0.52219999 -0.37856001 -1.7454
-0.51883 -0.37830999 -1.7442
-0.51621002 -0.37867001 -1.7459
-0.51284999 -0.37841001 -1.7447
-0.50972998 -0.37836 -1.7445
-0.50661999 -0.37830001 -1.7442
-0.50327998 -0.37803999 -1.743
-0.50016999 -0.37799001 -1.7428
-0.49682999 -0.37772 -1.7415
-0.49397001 -0.37786999 -1.7422
-0.49087 -0.37781 -1.7419
-0.48800999 -0.37796 -1.7426
-0.48537001 -0.37830999 -1.7442
-0.48251 -0.37845001 -1.7449
-0.47940999 -0.37839001 -1.7446001
-0.47632 -0.37832001 -1.7443
-0.47323 -0.37825 -1.744
-0.47036001 -0.37839001 -1.7446001
-0.46748999 -0.37853 -1.7453001
-0.46506 -0.37908 -1.7478
-0.46197 -0.37900999 -1.7474999
-0.45888001 -0.37893999 -1.7471
-0.45493999 -0.37803 -1.743
-0.45208001 -0.37817001 -1.7436
-0.44879001 -0.37788001 -1.7423
-0.44551 -0.37760001 -1.7410001
-0.44244 -0.37751999 -1.7406
-0.43999001 -0.37806001 -1.7431
-0.43713 -0.37819001 -1.7437
-0.43426001 -0.37830999 -1.7443
-0.43158999 -0.37864 -1.7458
-0.42872 -0.37876999 -1.7464
-0.42585 -0.37889001 -1.7469
-0.42278001 -0.3788 -1.7465
-0.41933 -0.37830001 -1.7442
-0.41646999 -0.37842 -1.7447
-0.4136 -0.37854001 -1.7453001
-0.41091001 -0.37886 -1.7467999
-0.40766999 -0.37856001 -1.7454
-0.40461999 -0.37847 -1.745
-0.40156999 -0.37836999 -1.7445
-0.39851999 -0.37827 -1.7441
-0.39511001 -0.37775999 -1.7417001
-0.39261001 -0.37829 -1.7441
-0.38973999 -0.37839001 -1.7446001
-0.38687 -0.37850001 -1.7451
-0.384 -0.37860999 -1.7456
-0.38095999 -0.37851 -1.7451
-0.37759 -0.37797999 -1.7427
-0.37455001 -0.37788001 -1.7423
-0.37136 -0.37755999 -1.7408
-0.36915001 -0.37850001 -1.7451
-0.36627999 -0.3786 -1.7456
-0.36324999 -0.37849 -1.7451
-0.36006999 -0.37817001 -1.7436
-0.35688999 -0.37785 -1.7421
-0.35402 -0.37794 -1.7424999
-0.35100999 -0.37783 -1.742
-0.34814 -0.37792 -1.7424001
-0.34527999 -0.37801 -1.7429
-0.34226999 -0.3779 -1.7423
-0.33969 -0.3784 -1.7447
-0.33668 -0.37828001 -1.7441
-0.33396 -0.37858 -1.7455
-0.33065999 -0.37803999 -1.743
-0.32793999 -0.37834001 -1.7444
-0.32521001 -0.37863001 -1.7457
-0.32234001 -0.37871 -1.7460999
-0.31946999 -0.3788 -1.7465
-0.31632999 -0.37845999 -1.7449
-0.31358999 -0.37875 -1.7463
-0.31033999 -0.37819999 -1.7437
-0.30772001 -0.37869999 -1.7460001
-0.3046 -0.37834999 -1.7444
-0.30160999 -0.37821999 -1.7438
-0.29874 -0.37830001 -1.7442
-0.296 -0.37858 -1.7455
-0.29301 -0.37843999 -1.7449
-0.29014 -0.37851 -1.7452
-0.28727001 -0.37858999 -1.7455
-0.28439999 -0.37865999 -1.7458
-0.28141999 -0.37851 -1.7452
-0.27844 -0.37836999 -1.7445
-0.27557001 -0.37843999 -1.7448
-0.2726 -0.37829 -1.7442
-0.26993999 -0.37878001 -1.7464
-0.26707 -0.37884 -1.7467
-0.2642 -0.37889999 -1.747
-0.26102999 -0.37832999 -1.7443
-0.25806001 -0.37818 -1.7436
-0.25538999 -0.37865999 -1.7459
-0.25251999 -0.37871999 -1.7460999
-0.24965 -0.37878001 -1.7464
-0.24669001 -0.37862 -1.7457
-0.24372999 -0.37847 -1.745
-0.24086 -0.37852001 -1.7452
-0.23799001 -0.37856999 -1.7455
-0.23529001 -0.37904999 -1.7476
-0.23225001 -0.37867001 -1.7459
-0.22938 -0.37871999 -1.7462
-0.22651 -0.37876999 -1.7464
-0.22363999 -0.37882 -1.7466
-0.22054 -0.37823001 -1.7438999
-0.21766999 -0.37828001 -1.7441
-0.21495 -0.37874001 -1.7462
-0.21208 -0.37878999 -1.7464
-0.20914 -0.37862 -1.7457
-0.2062 -0.37845001 -1.7449
-0.20321 -0.37806001 -1.7431
-0.20028 -0.37788999 -1.7423
-0.19741 -0.37792999 -1.7424999
-0.19454999 -0.37797001 -1.7427
-0.19186001 -0.37864 -1.7457
-0.1891 -0.37909001 -1.7479
-0.18623 -0.37913001 -1.748
-0.1832 -0.37853 -1.7452
-0.18028 -0.37834001 -1.7444
-0.17731 -0.37795001 -1.7426
-0.17454 -0.3784 -1.7447
-0.17172 -0.37864 -1.7458
-0.16885 -0.37867001 -1.7459
-0.16602001 -0.37891001 -1.747
-0.16319001 -0.37915 -1.7481
-0.16031 -0.37917 -1.7482001
-0.1574 -0.37898001 -1.7473
-0.15449999 -0.37878999 -1.7465
-0.15159 -0.3786 -1.7456
-0.14872 -0.37862 -1.7457
-0.14588 -0.37885001 -1.7467
-0.14307 -0.37929001 -1.7488
-0.14015999 -0.37909999 -1.7479
-0.13727 -0.37889999 -1.747
-0.13439 -0.37891001 -1.747
-0.13156 -0.37935001 -1.749
-0.12867001 -0.37915 -1.7481
-0.12578 -0.37895 -1.7472
-0.12289 -0.37875 -1.7463
-0.12003 -0.37897 -1.7473
-0.11716 -0.37898001 -1.7473
-0.11428 -0.37876999 -1.7464
-0.11141 -0.37878001 -1.7464
-0.10851 -0.37814999 -1.7435
-0.10565 -0.37836 -1.7445
-0.10279 -0.37836999 -1.7445
-0.099922001 -0.37878999 -1.7465
-0.60973001 -0.37724 -1.7478
-0.60626 -0.37702 -1.7467999
-0.60250998 -0.3766 -1.7449
-0.59904999 -0.37639001 -1.7438999
-0.5959 -0.37637001 -1.7438
-0.59302998 -0.37654999 -1.7446001
-0.58986998 -0.37652999 -1.7445
-0.58701003 -0.37671 -1.7454
-0.58414 -0.37689 -1.7462
-0.58042002 -0.37645999 -1.7442
-0.57754999 -0.37663999 -1.7451
-0.57440001 -0.37661999 -1.7449
-0.57154 -0.37678999 -1.7457
-0.56866997 -0.37696999 -1.7466
-0.56580001 -0.37713999 -1.7474
-0.56291997 -0.37731001 -1.7482001
-0.55978 -0.37728 -1.748
-0.55637002 -0.37704 -1.7469
-0.55322999 -0.37700999 -1.7467999
-0.54929 -0.37636 -1.7438
-0.54694998 -0.37693 -1.7464
-0.54356003 -0.37669 -1.7453001
-0.54146999 -0.37746999 -1.7489001
-0.53807998 -0.37722 -1.7477
-0.53469002 -0.37698001 -1.7466
-0.53131002 -0.37673 -1.7455
-0.52793002 -0.37648001 -1.7443
-0.52506 -0.37663999 -1.745
-0.52219999 -0.3768 -1.7458
-0.51808 -0.37593001 -1.7418
-0.51595998 -0.37670001 -1.7453001
-0.51235998 -0.37623999 -1.7431999
-0.51021999 -0.377 -1.7467
-0.50711 -0.37695 -1.7465
-0.50400001 -0.37689999 -1.7462
-0.50112998 -0.37705001 -1.7469
-0.49754 -0.37658 -1.7448
-0.49421 -0.37632 -1.7436
-0.49180999 -0.37687001 -1.7460999
-0.4887 -0.37681001 -1.7458
-0.48559999 -0.37674999 -1.7456
-0.48251 -0.37669 -1.7453001
-0.47918001 -0.37641999 -1.744
-0.47632 -0.37656 -1.7447
-0.47345001 -0.37670001 -1.7453001
-0.47036001 -0.37663001 -1.745
-0.46792999 -0.37718001 -1.7474999
-0.46461999 -0.37689999 -1.7463
-0.46217999 -0.37744999 -1.7488
-0.45866999 -0.37696999 -1.7466
-0.45537001 -0.37669 -1.7453001
-0.45186999 -0.37619999 -1.743
-0.44942001 -0.37674001 -1.7455
-0.44716999 -0.37749001 -1.749
-0.44409001 -0.37740999 -1.7486
-0.44080999 -0.37713 -1.7473
-0.43733001 -0.37663001 -1.745
-0.43446001 -0.37676001 -1.7456
-0.43119001 -0.37647 -1.7442
-0.42872 -0.377 -1.7467
-0.42565 -0.37692001 -1.7463
-0.42278001 -0.37704 -1.7469
-0.41971999 -0.37695 -1.7465
-0.41703999 -0.37728 -1.748
-0.41416001 -0.37739 -1.7485
-0.4111 -0.37729999 -1.7481
-0.40803999 -0.37720999 -1.7477
-0.40516999 -0.37731999 -1.7482001
-0.40156999 -0.37661001 -1.7449
-0.39888 -0.37693 -1.7464
-0.39601001 -0.37704 -1.7469
-0.39331001 -0.37735999 -1.7484
-0.39026001 -0.37726 -1.7479
-0.38756001 -0.37757 -1.7494
-0.38451999 -0.37746999 -1.7489001
-0.3813 -0.37716001 -1.7474999
-0.37825999 -0.37706 -1.747
-0.37505001 -0.37674001 -1.7455
-0.37252 -0.37726 -1.7479
-0.36948001 -0.37715 -1.7474
-0.36677 -0.37746 -1.7489001
-0.36357 -0.37713999 -1.7474
-0.36037999 -0.37682 -1.7459
-0.35736001 -0.37671 -1.7454
-0.35433 -0.3766 -1.7449
-0.35177001 -0.37711 -1.7472
-0.34889999 -0.37720001 -1.7477
-0.34617999 -0.3775 -1.7491
-0.34330001 -0.37760001 -1.7495
-0.34042999 -0.37768999 -1.7499
-0.33712 -0.37715 -1.7474
-0.33423999 -0.37724 -1.7478
-0.33137 -0.37731999 -1.7482001
-0.32822001 -0.37698999 -1.7467
-0.32548001 -0.37729001 -1.748
-0.32234001 -0.37695 -1.7465
-0.31946999 -0.37702999 -1.7469
-0.31659999 -0.37711 -1.7472
-0.31358999 -0.37698999 -1.7467
-0.31059 -0.37685999 -1.7460001
-0.30785 -0.37713999 -1.7474
-0.30498001 -0.37722 -1.7477
-0.30210999 -0.37729999 -1.7481
-0.29934999 -0.37757999 -1.7494
-0.29635999 -0.37744999 -1.7488
-0.29335999 -0.37731001 -1.7481
-0.29049 -0.37738001 -1.7485
-0.28773001 -0.37766001 -1.7498
-0.28463 -0.37731001 -1.7482001
-0.28152999 -0.37696001 -1.7465
-0.27833 -0.37639999 -1.7438999
-0.27568001 -0.37687999 -1.7462
-0.27292001 -0.37716001 -1.7474999
-0.27004999 -0.37722 -1.7478
-0.26717001 -0.37729001 -1.748
-0.26429999 -0.37735 -1.7483
-0.26133001 -0.37720001 -1.7476
-0.25836 -0.37705001 -1.7469
-0.25577 -0.37774 -1.7501
-0.25308001 -0.37821999 -1.7524
-0.24992 -0.37764001 -1.7497
-0.24687 -0.37728 -1.748
-0.24382 -0.37691 -1.7463
-0.24094 -0.37696999 -1.7466
-0.23807 -0.37702 -1.7467999
-0.23529001 -0.37728 -1.748
-0.2325 -0.37753999 -1.7492
-0.22961999 -0.37759 -1.7495
-0.22667 -0.37742999 -1.7487
-0.22386999 -0.37768999 -1.7499
-0.22092 -0.37751999 -1.7491
-0.21811 -0.37777999 -1.7503
-0.21509001 -0.37740001 -1.7486
-0.21222 -0.37744001 -1.7488
-0.20928 -0.37728 -1.748
-0.20640001 -0.37731999 -1.7482001
-0.20333999 -0.37672001 -1.7454
-0.20039999 -0.37654999 -1.7446001
-0.19754 -0.37659001 -1.7448
-0.19479001 -0.37705001 -1.7469
-0.19203 -0.37751001 -1.7491
-0.18916 -0.37753999 -1.7492
-0.18617 -0.37715 -1.7474
-0.18325 -0.37696999 -1.7466
-0.18038 -0.377 -1.7467
-0.17746 -0.37682 -1.7459
-0.17459001 -0.37685001 -1.7460001
-0.17175999 -0.37709001 -1.7471
-0.16902 -0.37775001 -1.7502
-0.1661 -0.37757 -1.7493
-0.16319001 -0.37738001 -1.7485
-0.16023999 -0.37698001 -1.7466
-0.15737 -0.37700999 -1.7467
-0.15453 -0.37724 -1.7478
-0.15169001 -0.37746999 -1.7489001
-0.14888 -0.37790999 -1.7509
-0.14597 -0.37772 -1.75
-0.14308999 -0.37774 -1.7501
-0.14015999 -0.37733001 -1.7482001
-0.13732 -0.37755999 -1.7493
-0.13441999 -0.37735999 -1.7484
-0.13154 -0.37737 -1.7484
-0.12864999 -0.37717 -1.7474999
-0.12578 -0.37718999 -1.7476
-0.12289 -0.37698999 -1.7466
-0.12003 -0.37720001 -1.7477
-0.11717 -0.37742001 -1.7487
-0.1143 -0.37742999 -1.7487
-0.11142 -0.37744001 -1.7487
-0.10855 -0.37744001 -1.7488
-0.10567 -0.37744999 -1.7488
-0.1028 -0.37724 -1.7478
-0.099923998 -0.37724 -1.7478
-0.61062002 -0.37605 -1.751
-0.60685003 -0.37562999 -1.7491
-0.60398 -0.37582001 -1.7499
-0.59992999 -0.3752 -1.7471
-0.59676999 -0.37518001 -1.747
-0.59302998 -0.37476 -1.745
-0.59074003 -0.37535 -1.7477
-0.58815002 -0.37573001 -1.7495
-0.58526999 -0.37591001 -1.7503999
-0.58183002 -0.37568 -1.7493
-0.57754999 -0.37485 -1.7454
-0.57413 -0.37461999 -1.7444
-0.57154 -0.375 -1.7460999
-0.56893998 -0.37538001 -1.7479
-0.56661999 -0.37595001 -1.7506
-0.56374002 -0.37612 -1.7514
-0.56032002 -0.37588999 -1.7503
-0.55716997 -0.37586001 -1.7501
-0.55403 -0.37582001 -1.75
-0.55009001 -0.37518001 -1.747
-0.54721999 -0.37535 -1.7477
-0.54356003 -0.37490001 -1.7457
-0.54069 -0.37507001 -1.7464
-0.53755999 -0.37502 -1.7462
-0.53417999 -0.37478 -1.7451
-0.53079998 -0.37452999 -1.744
-0.52793002 -0.37469 -1.7447
-0.52556998 -0.37526 -1.7473
-0.52345002 -0.37602001 -1.7509
-0.52007002 -0.37577 -1.7497
-0.51571 -0.37470001 -1.7448
-0.51210999 -0.37424999 -1.7426
-0.51021999 -0.37520999 -1.7471
-0.50735003 -0.37536001 -1.7478
-0.50448 -0.37551001 -1.7485
-0.50137001 -0.37546 -1.7483
-0.49801999 -0.3752 -1.7471
-0.49515 -0.37535 -1.7477
-0.49226999 -0.37549001 -1.7484
-0.4894 -0.37562999 -1.7491
-0.48605999 -0.37537 -1.7479
-0.48274001 -0.37509999 -1.7466
-0.47986001 -0.37524 -1.7473
-0.47677001 -0.37518001 -1.747
-0.47367001 -0.37511 -1.7467
-0.47080001 -0.37525001 -1.7473
-0.46748999 -0.37498 -1.7460001
-0.46439999 -0.37491 -1.7457
-0.46154001 -0.37503999 -1.7463
-0.45866999 -0.37516999 -1.7469
-0.45601001 -0.37551001 -1.7485
-0.45291999 -0.37544 -1.7482001
-0.45047 -0.37597999 -1.7507
-0.44758999 -0.37610999 -1.7513
-0.44409001 -0.37562001 -1.749
-0.44080999 -0.37533 -1.7477
-0.43794 -0.37546 -1.7483
-0.43465999 -0.37516999 -1.7469
-0.43219 -0.37571001 -1.7494
-0.42930999 -0.37582999 -1.75
-0.42644 -0.37595001 -1.7506
-0.42335999 -0.37586999 -1.7502
-0.4201 -0.37557 -1.7488
-0.41742 -0.3759 -1.7503
-0.41453999 -0.37601 -1.7508
-0.41165999 -0.37613001 -1.7514
-0.40841001 -0.37582999 -1.75
-0.40553999 -0.37594 -1.7505
-0.40248001 -0.37584999 -1.7501
-0.39996001 -0.37638 -1.7525001
-0.39671999 -0.37606999 -1.7510999
-0.3942 -0.3766 -1.7536
-0.39061001 -0.37588 -1.7502
-0.38773999 -0.37597999 -1.7507
-0.38451999 -0.37568 -1.7493
-0.38181001 -0.37599 -1.7507
-0.37876999 -0.37588 -1.7502
-0.37571999 -0.37577999 -1.7498
-0.37268001 -0.37566999 -1.7493
-0.36980999 -0.37577999 -1.7497
-0.36708999 -0.37608001 -1.7512
-0.36405 -0.37597001 -1.7507
-0.36133 -0.37628001 -1.7521
-0.35813999 -0.37595999 -1.7506
-0.35526001 -0.37605 -1.751
-0.35207999 -0.37573001 -1.7495
-0.34920001 -0.37582999 -1.75
-0.34632999 -0.37592 -1.7503999
-0.34345001 -0.37601 -1.7508
-0.34057 -0.3761 -1.7512
-0.33726001 -0.37555999 -1.7488
-0.33423999 -0.37544 -1.7482001
-0.33137 -0.37553 -1.7486
-0.32835999 -0.37540999 -1.748
-0.32534999 -0.37527999 -1.7474999
-0.32288 -0.37599 -1.7507
-0.31999999 -0.37606999 -1.7510999
-0.31672999 -0.37553 -1.7486
-0.31371999 -0.37540001 -1.748
-0.31084999 -0.37548 -1.7484
-0.30823001 -0.37597999 -1.7507
-0.30548 -0.37626001 -1.752
-0.3026 -0.37634 -1.7524
-0.29971999 -0.37641001 -1.7527
-0.29672 -0.37628001 -1.7521
-0.29372001 -0.37614 -1.7514
-0.29049 -0.37559 -1.7489001
-0.28773001 -0.37586999 -1.7502
-0.28474 -0.37573001 -1.7495
-0.28187001 -0.37580001 -1.7498
-0.27921 -0.37628001 -1.7521
-0.27621999 -0.37614 -1.7514
-0.27302 -0.37558001 -1.7488
-0.27035999 -0.37606001 -1.7510999
-0.26747999 -0.37612 -1.7513
-0.2647 -0.37639001 -1.7526
-0.26181999 -0.37645 -1.7529
-0.25904 -0.37672001 -1.7541
-0.25606 -0.37656999 -1.7534
-0.25308001 -0.37641999 -1.7527
-0.25002 -0.37606001 -1.7510999
-0.24687 -0.37549001 -1.7484
-0.24399 -0.37553999 -1.7487
-0.24094 -0.37518001 -1.747
-0.23807 -0.37523001 -1.7472
-0.2352 -0.37527999 -1.7474
-0.23258001 -0.37595999 -1.7506
-0.2297 -0.37601 -1.7508
-0.22682001 -0.37605 -1.751
-0.22386999 -0.37588999 -1.7503
-0.22099 -0.37594 -1.7505
-0.21819 -0.37619001 -1.7517
-0.21538 -0.37645 -1.7529
-0.21250001 -0.37649 -1.7531
-0.20948 -0.37610999 -1.7513
-0.2066 -0.37615001 -1.7515
-0.20359001 -0.37577 -1.7497
-0.20066001 -0.37560001 -1.7489001
-0.19778 -0.37564 -1.7491
-0.19497 -0.37588999 -1.7503
-0.19203 -0.37571001 -1.7494
-0.18904001 -0.37533 -1.7476
-0.18623 -0.37557 -1.7488
-0.18341 -0.37581 -1.7499
-0.18063 -0.37626001 -1.752
-0.17775001 -0.37628999 -1.7521
-0.17482001 -0.37610999 -1.7513
-0.17185 -0.37571999 -1.7495
-0.16902 -0.37595999 -1.7506
-0.16615 -0.37597999 -1.7507
-0.16323 -0.37580001 -1.7498
-0.16023999 -0.37518999 -1.747
-0.15755001 -0.37626001 -1.752
-0.15467 -0.37628001 -1.7521
-0.15178999 -0.37630999 -1.7522
-0.14891 -0.37632 -1.7523
-0.146 -0.37613001 -1.7514
-0.14312001 -0.37615001 -1.7515
-0.14019001 -0.37575001 -1.7496001
-0.13732 -0.37575999 -1.7497
-0.13444 -0.37577999 -1.7497
-0.13158 -0.37599999 -1.7508
-0.12871 -0.37601 -1.7508
-0.12582999 -0.37602001 -1.7509
-0.12295 -0.37603 -1.7509
-0.12007 -0.37604001 -1.751
-0.1172 -0.37605 -1.751
-0.11432 -0.37606001 -1.7510999
-0.11144 -0.37606001 -1.7510999
-0.10858 -0.37649 -1.7531
-0.10568 -0.37606999 -1.7510999
-0.10281 -0.37628001 -1.7521
-0.099931002 -0.37628999 -1.7521
-0.61150998 -0.37487999 -1.7542
-0.60863 -0.37507001 -1.7551
-0.60456002 -0.37445 -1.7522
-0.60110003 -0.37424001 -1.7512
-0.59793001 -0.37422001 -1.7510999
-0.59419 -0.37380999 -1.7491
-0.59074003 -0.37358999 -1.7481
-0.58758003 -0.37356001 -1.748
-0.58499002 -0.37393999 -1.7498
-0.58155 -0.37371999 -1.7488
-0.57839 -0.37369999 -1.7486
-0.57524002 -0.37367001 -1.7485
-0.57236999 -0.37384 -1.7493
-0.56976998 -0.37422001 -1.7510999
-0.56717002 -0.37459001 -1.7528
-0.56401002 -0.37456 -1.7527
-0.56005001 -0.37393001 -1.7497
-0.55825001 -0.37490001 -1.7543
-0.55430001 -0.37426001 -1.7513
-0.55009001 -0.37342 -1.7473
-0.54721999 -0.37358999 -1.7481
-0.54435003 -0.37375 -1.7489001
-0.54121 -0.37371001 -1.7487
-0.53807998 -0.37367001 -1.7485
-0.53417999 -0.37301999 -1.7455
-0.53079998 -0.37278 -1.7443
-0.52793002 -0.37292999 -1.7451
-0.52607 -0.3739 -1.7496001
-0.5237 -0.37446001 -1.7522
-0.52082002 -0.37461999 -1.7529
-0.51719999 -0.37415999 -1.7508
-0.51383001 -0.37391001 -1.7496001
-0.51120001 -0.37426001 -1.7513
-0.50808001 -0.37421 -1.7510999
-0.50496 -0.37415999 -1.7508
-0.50208002 -0.37430999 -1.7515
-0.49919999 -0.37445 -1.7522
-0.49608999 -0.37439999 -1.7519
-0.49204001 -0.37353 -1.7478
-0.48917001 -0.37367001 -1.7485
-0.48583001 -0.37340999 -1.7473
-0.48295999 -0.37355 -1.7479
-0.48008999 -0.37369001 -1.7486
-0.47722 -0.37382999 -1.7492
-0.47433999 -0.37395999 -1.7499
-0.47191 -0.37450999 -1.7524
-0.46924999 -0.37485 -1.7539999
-0.46461999 -0.37334999 -1.747
-0.46175 -0.37349001 -1.7477
-0.45888001 -0.37362 -1.7483
-0.45664999 -0.37436 -1.7517999
-0.45377001 -0.37448999 -1.7524
-0.45109999 -0.37483001 -1.7539001
-0.44821 -0.37496001 -1.7545
-0.4443 -0.37406 -1.7503
-0.44141999 -0.37419 -1.7509
-0.43834001 -0.37411001 -1.7506
-0.43566999 -0.37444001 -1.7521
-0.43279001 -0.37456 -1.7527
-0.42971 -0.37448001 -1.7523
-0.42682999 -0.37459999 -1.7529
-0.42375001 -0.37450999 -1.7525001
-0.42087001 -0.37463 -1.753
-0.41760999 -0.37434 -1.7516
-0.41453999 -0.37424999 -1.7512
-0.41148001 -0.37415999 -1.7508
-0.40803999 -0.37366 -1.7485
-0.40553999 -0.37417999 -1.7509
-0.40283999 -0.37450001 -1.7524
-0.39996001 -0.37461001 -1.7529
-0.3969 -0.37450999 -1.7525001
-0.39383999 -0.37441999 -1.752
-0.39043999 -0.37391001 -1.7496001
-0.38773999 -0.37422001 -1.7510999
-0.38468999 -0.37412 -1.7506
-0.38214999 -0.37463999 -1.753
-0.37876999 -0.37412 -1.7506
-0.37571999 -0.37402001 -1.7501
-0.37268001 -0.37391001 -1.7497
-0.36948001 -0.37360001 -1.7482001
-0.36725 -0.37452 -1.7525001
-0.36436999 -0.37461999 -1.753
-0.36149001 -0.37472001 -1.7534
-0.35845 -0.37461001 -1.7529
-0.35556999 -0.37470001 -1.7534
-0.35269001 -0.3748 -1.7538
-0.34981 -0.37489 -1.7542
-0.34678 -0.37478 -1.7537
-0.34389001 -0.37487 -1.7541
-0.34057 -0.37434 -1.7516
-0.33726001 -0.37380001 -1.7491
-0.33439001 -0.37389001 -1.7495
-0.33137 -0.37377 -1.749
-0.3285 -0.37384999 -1.7494
-0.32548001 -0.37373 -1.7488
-0.32315001 -0.37463999 -1.7531
-0.31999999 -0.37430999 -1.7515
-0.31713 -0.37439001 -1.7519
-0.31399 -0.37406 -1.7503
-0.31162 -0.37496001 -1.7546
-0.30860999 -0.37483001 -1.7539999
-0.30561 -0.37470001 -1.7534
-0.30272001 -0.37478 -1.7537
-0.29995999 -0.37505999 -1.755
-0.29708001 -0.37513 -1.7553999
-0.29372001 -0.37437999 -1.7517999
-0.29084 -0.37445 -1.7522
-0.28830999 -0.37514001 -1.7553999
-0.28553 -0.37542 -1.7567
-0.28253999 -0.37527999 -1.756
-0.27932 -0.37472001 -1.7534
-0.27654999 -0.375 -1.7546999
-0.27344999 -0.37465 -1.7531
-0.27046001 -0.37450001 -1.7524
-0.26747999 -0.37436 -1.7517
-0.26460001 -0.37441999 -1.752
-0.26181999 -0.37469 -1.7533
-0.25883999 -0.37454 -1.7526
-0.25606 -0.3748 -1.7538
-0.25299001 -0.37445 -1.7521
-0.24992 -0.37408999 -1.7505
-0.24696 -0.37393001 -1.7497
-0.24417 -0.37419999 -1.751
-0.24129 -0.37424999 -1.7512
-0.23841999 -0.3743 -1.7515
-0.23562001 -0.37456 -1.7527
-0.23266 -0.37439999 -1.7519
-0.22985999 -0.37465999 -1.7531
-0.22706001 -0.37492001 -1.7543
-0.2244 -0.37559 -1.7575001
-0.22129001 -0.37501001 -1.7548
-0.21819 -0.37443 -1.7521
-0.21559 -0.37531 -1.7562
-0.21270999 -0.37535 -1.7564
-0.20962 -0.37476 -1.7536
-0.20667 -0.37459999 -1.7529
-0.20372 -0.37443 -1.7521
-0.20072 -0.37404999 -1.7503
-0.19796 -0.37450001 -1.7524
-0.1952 -0.37496001 -1.7545
-0.19220001 -0.37457001 -1.7527
-0.18927 -0.37439999 -1.7519
-0.18628 -0.37402001 -1.7501
-0.18341 -0.37404999 -1.7503
-0.18068001 -0.37470999 -1.7534
-0.1778 -0.37474 -1.7535
-0.17491999 -0.37476 -1.7536
-0.17199001 -0.37458 -1.7528
-0.16893999 -0.37377 -1.749
-0.16606 -0.37380001 -1.7491
-0.16339 -0.37487 -1.7541
-0.16046999 -0.37468001 -1.7533
-0.15755001 -0.37450001 -1.7524
-0.15467 -0.37452 -1.7525001
-0.15178999 -0.37454 -1.7526
-0.14888 -0.37435001 -1.7517
-0.14597 -0.37415999 -1.7508
-0.14308999 -0.37417999 -1.7509
-0.14022 -0.37419 -1.751
-0.13733999 -0.37421 -1.751
-0.13444 -0.37401 -1.7501
-0.13161001 -0.37445 -1.7521
-0.12873 -0.37446001 -1.7522
-0.12585001 -0.37447 -1.7523
-0.12303 -0.37531 -1.7562
-0.1201 -0.37470001 -1.7533
-0.11722 -0.37470001 -1.7534
-0.11434 -0.37470999 -1.7534
-0.11147 -0.37492999 -1.7544
-0.10859 -0.37514001 -1.7553999
-0.10568 -0.3741 -1.7505
-0.10282 -0.37515 -1.7553999
-0.099933997 -0.37494001 -1.7545
-0.61091 -0.37272999 -1.7527
-0.60833001 -0.37311 -1.7545
-0.60456002 -0.37270001 -1.7526
-0.60139 -0.37268999 -1.7525001
-0.59851003 -0.37287 -1.7533
-0.59534001 -0.37285 -1.7533
-0.5916 -0.37244001 -1.7513
-0.58872002 -0.37261 -1.7521
-0.58613002 -0.37299001 -1.7539001
-0.58267999 -0.37277001 -1.7529
-0.57924002 -0.37255001 -1.7517999
-0.57608002 -0.37252 -1.7517
-0.57292002 -0.3725 -1.7516
-0.57003999 -0.37266999 -1.7524
-0.56689 -0.37264001 -1.7523
-0.56401002 -0.37281001 -1.7531
-0.56032002 -0.37237999 -1.751
-0.55852002 -0.37334999 -1.7556
-0.55403 -0.37231001 -1.7507
-0.55115002 -0.37248001 -1.7515
-0.54775 -0.37224001 -1.7503999
-0.54513001 -0.37259999 -1.7521
-0.54198998 -0.37255999 -1.7519
-0.53937 -0.37292999 -1.7536
-0.53597999 -0.37268001 -1.7525001
-0.53310001 -0.37283999 -1.7532001
-0.52970999 -0.37259999 -1.7521
-0.52683002 -0.37275001 -1.7528
-0.52394998 -0.37290999 -1.7535
-0.52056998 -0.37266001 -1.7524
-0.51744002 -0.37261 -1.7521
-0.51455998 -0.37277001 -1.7529
-0.51168001 -0.37292001 -1.7536
-0.50856 -0.37287 -1.7533
-0.50568002 -0.37301001 -1.7539999
-0.50256002 -0.37296 -1.7538
-0.49944001 -0.37290001 -1.7535
-0.49656001 -0.37305 -1.7542
-0.49344 -0.37299001 -1.7539001
-0.4901 -0.37272999 -1.7527
-0.48653001 -0.37226999 -1.7505
-0.48319 -0.37200001 -1.7493
-0.48076999 -0.37255001 -1.7517999
-0.47722 -0.37208 -1.7496001
-0.47479001 -0.37261999 -1.7522
-0.47235 -0.37316 -1.7546999
-0.46969 -0.37349999 -1.7563
-0.46658999 -0.37343001 -1.756
-0.46283001 -0.37275001 -1.7528
-0.45995 -0.37289 -1.7534
-0.45706999 -0.37301999 -1.7539999
-0.45418999 -0.37314999 -1.7546999
-0.45131001 -0.37327999 -1.7553
-0.44841999 -0.37340999 -1.7559
-0.44512001 -0.37312999 -1.7545
-0.44183001 -0.37283999 -1.7532001
-0.43895 -0.37297001 -1.7538
-0.43607 -0.37309 -1.7544
-0.43299001 -0.37301001 -1.7539999
-0.43009999 -0.37312999 -1.7546
-0.42702001 -0.37305 -1.7542
-0.42375001 -0.37276 -1.7528
-0.42107001 -0.37307999 -1.7543
-0.41760999 -0.37259001 -1.752
-0.41510999 -0.37311 -1.7545
-0.41223001 -0.37323001 -1.755
-0.40933999 -0.37334001 -1.7556
-0.40645999 -0.37345001 -1.7561001
-0.40321001 -0.37316 -1.7546999
-0.40031999 -0.37327 -1.7552
-0.39671999 -0.37255999 -1.7519
-0.39366999 -0.37246001 -1.7514
-0.39078999 -0.37257001 -1.7519
-0.38791001 -0.37266999 -1.7524
-0.38503 -0.37278 -1.7529
-0.38198 -0.37268001 -1.7524
-0.37893 -0.37257999 -1.752
-0.37571999 -0.37226999 -1.7505
-0.37301001 -0.37257001 -1.752
-0.37046 -0.37307999 -1.7544
-0.36741 -0.37298 -1.7539001
-0.36453 -0.37307999 -1.7543
-0.36164999 -0.37316999 -1.7548
-0.35877001 -0.37327 -1.7552
-0.35604 -0.37357 -1.7566
-0.35315001 -0.37366 -1.7571
-0.34996 -0.37334001 -1.7556
-0.34707001 -0.37343001 -1.756
-0.34419 -0.37351999 -1.7564
-0.34101 -0.3732 -1.7549
-0.33755001 -0.37246999 -1.7514
-0.33480999 -0.37276 -1.7528
-0.33221999 -0.37325999 -1.7552
-0.32918999 -0.37314001 -1.7546
-0.32617 -0.37301001 -1.7539999
-0.32328999 -0.37310001 -1.7544
-0.32054001 -0.37338001 -1.7558
-0.31779 -0.37367001 -1.7571
-0.31477001 -0.37354001 -1.7565
-0.31187999 -0.37362 -1.7569
-0.30860999 -0.37307999 -1.7543
-0.30561 -0.37294999 -1.7537
-0.30272001 -0.37303001 -1.7541
-0.29984 -0.37310001 -1.7544
-0.29696 -0.37316999 -1.7548
-0.29396001 -0.37303999 -1.7541
-0.29107001 -0.37311 -1.7545
-0.28841999 -0.37358999 -1.7567
-0.28542 -0.37345999 -1.7561001
-0.28264999 -0.37373 -1.7574
-0.27943 -0.37318 -1.7548
-0.27676001 -0.37366 -1.757
-0.27355999 -0.37310001 -1.7544
-0.27067 -0.37316 -1.7546999
-0.26769 -0.37301999 -1.7539999
-0.2647 -0.37287 -1.7534
-0.26192001 -0.37314001 -1.7546
-0.25883999 -0.37279001 -1.753
-0.25624999 -0.37347001 -1.7561001
-0.25318 -0.37311 -1.7545
-0.25038999 -0.37336999 -1.7557
-0.24722999 -0.37281001 -1.753
-0.24435 -0.37286001 -1.7533
-0.24146999 -0.37290999 -1.7535
-0.23867001 -0.37316999 -1.7548
-0.23587 -0.37343001 -1.756
-0.23274 -0.37286001 -1.7533
-0.22978 -0.37270001 -1.7525001
-0.22713999 -0.37336999 -1.7557
-0.22432999 -0.37362 -1.7569
-0.22137 -0.37345999 -1.7561001
-0.21841 -0.37329999 -1.7553999
-0.21551999 -0.37334001 -1.7556
-0.21264 -0.37338999 -1.7558
-0.20968001 -0.37322 -1.755
-0.20672999 -0.37305 -1.7542
-0.20385 -0.37309 -1.7544
-0.20091 -0.37292001 -1.7536
-0.19809 -0.37316999 -1.7546999
-0.19526 -0.37340999 -1.7559
-0.19238 -0.37345001 -1.7561001
-0.18944 -0.37327 -1.7552
-0.18655001 -0.37331 -1.7553999
-0.18377 -0.37375 -1.7575001
-0.18088 -0.37378001 -1.7575999
-0.178 -0.37380999 -1.7578
-0.17501 -0.37343001 -1.756
-0.17199001 -0.37283 -1.7532001
-0.1692 -0.37327 -1.7552
-0.16631 -0.37329999 -1.7553999
-0.16343001 -0.37332001 -1.7555
-0.16054 -0.37334999 -1.7556
-0.15759 -0.37294999 -1.7537
-0.15474001 -0.37318 -1.7548
-0.15188999 -0.37340999 -1.7559
-0.14896999 -0.37322 -1.755
-0.14609 -0.37323999 -1.7551
-0.14323001 -0.37347001 -1.7562
-0.14030001 -0.37307 -1.7543
-0.13741 -0.37307999 -1.7543
-0.13451 -0.37289 -1.7534
-0.13165 -0.37311 -1.7545
-0.12878001 -0.37333 -1.7555
-0.1259 -0.37334001 -1.7556
-0.12302 -0.37334999 -1.7556
-0.12013 -0.37336001 -1.7556
-0.11725 -0.37336999 -1.7557
-0.11437 -0.37358001 -1.7567
-0.11148 -0.37338001 -1.7557
-0.1086 -0.37358999 -1.7567
-0.10571 -0.37338999 -1.7558
-0.10282 -0.37360001 -1.7568001
-0.099933997 -0.37318 -1.7548
-0.61062002 -0.37081 -1.7521
-0.60773998 -0.37099999 -1.753
-0.60456002 -0.37097999 -1.7529
-0.60167998 -0.37117001 -1.7538
-0.5988 -0.37134999 -1.7546
-0.59592003 -0.37153 -1.7555
-0.59275001 -0.37151 -1.7553999
-0.58958 -0.37149 -1.7553
-0.58669001 -0.37167001 -1.7562
-0.58380997 -0.37184 -1.757
-0.58007997 -0.37142 -1.755
-0.57718998 -0.3716 -1.7558
-0.57375997 -0.37136999 -1.7548
-0.57086998 -0.37154001 -1.7556
-0.56770998 -0.37152001 -1.7553999
-0.56456 -0.37149 -1.7553
-0.56194001 -0.37185001 -1.757
-0.55879003 -0.37182 -1.7569
-0.55536002 -0.37158999 -1.7558
-0.55274999 -0.37195 -1.7575001
-0.54933 -0.37171999 -1.7564
-0.54697001 -0.37228 -1.7591
-0.54356003 -0.37204 -1.7579
-0.53988999 -0.37160999 -1.7559
-0.53623003 -0.37116 -1.7538
