# .PCD v0.7 - Point Cloud Data file format
VERSION 0.7
FIELDS x y z
SIZE 4 4 4
TYPE F F F
COUNT 1 1 1
WIDTH 1584
HEIGHT 1
VIEWPOINT 0 0 0 1 0 0 0
POINTS 1584
DATA ascii
0.19084001 -0.54045999 -1.4603
0.19392 -0.54131001 -1.4626
0.19598 -0.54044998 -1.4603
0.19907001 -0.54128999 -1.4625
0.20113 -0.54043001 -1.4602
0.20400999 -0.54092997 -1.4615
0.20669 -0.54109001 -1.462
0.20938 -0.54123998 -1.4624
0.21185 -0.54105997 -1.4619
0.21454 -0.54121 -1.4622999
0.21679001 -0.54067999 -1.4608999
0.21947999 -0.54083002 -1.4613
0.22194999 -0.54062998 -1.4607
0.22464 -0.54078001 -1.4611
0.22779 -0.54159999 -1.4633
0.23049 -0.54174 -1.4637001
0.23251 -0.54086 -1.4614
0.23498 -0.54066002 -1.4608001
0.23791 -0.54114002 -1.4621
0.24084 -0.54161 -1.4634
0.24402 -0.54242003 -1.4656
0.24603 -0.54153001 -1.4632
0.2485 -0.54132003 -1.4626
0.25097999 -0.54110998 -1.462
0.25369 -0.54123998 -1.4624
0.25639999 -0.54136002 -1.4627
0.25863001 -0.54080999 -1.4612
0.26111001 -0.5406 -1.4606
0.26381999 -0.54070997 -1.461
0.26653999 -0.54083002 -1.4613
0.26925999 -0.54095 -1.4615999
0.27199 -0.54105997 -1.4619
0.27546999 -0.54218 -1.4649
0.27794999 -0.54194999 -1.4643
0.28042999 -0.54171997 -1.4637001
0.28290001 -0.54149997 -1.4631
0.28564 -0.54159999 -1.4634
0.28759 -0.54070002 -1.4608999
0.29058999 -0.54113001 -1.4621
0.29332 -0.54123002 -1.4624
0.29552999 -0.54066002 -1.4608001
0.29800001 -0.54042 -1.4602
0.30046999 -0.54018003 -1.4595
0.30348 -0.54061002 -1.4607
0.30649999 -0.54102999 -1.4618
0.3098 -0.54179001 -1.4639
0.31310001 -0.54254001 -1.4658999
0.31531 -0.54196 -1.4643
0.31806001 -0.54203999 -1.4645
0.32025999 -0.54145998 -1.4630001
0.32273 -0.54119998 -1.4622999
0.32519999 -0.54095 -1.4615999
0.32796001 -0.54101998 -1.4618
0.33072001 -0.54110003 -1.462
0.33349001 -0.54117 -1.4622
0.33596 -0.54091001 -1.4615
0.33842999 -0.54065001 -1.4608001
0.3409 -0.54038 -1.4601001
0.34336999 -0.54010999 -1.4593
0.34614 -0.54018003 -1.4595
0.3495 -0.54089999 -1.4615
0.35227999 -0.54096001 -1.4615999
0.35565999 -0.54167998 -1.4636
0.35905001 -0.5424 -1.4655
0.36153001 -0.54211998 -1.4648
0.36432001 -0.54216999 -1.4649
0.36711001 -0.54222 -1.465
0.36958 -0.54193997 -1.4643
0.37237999 -0.54198998 -1.4644001
0.37422001 -0.54104 -1.4618
0.37700999 -0.54109001 -1.462
0.37948 -0.54079998 -1.4612
0.38194999 -0.54051 -1.4604
0.38474 -0.54054999 -1.4605
0.38850999 -0.54157001 -1.4633
0.39162999 -0.54193002 -1.4642
0.39444 -0.54196 -1.4643
0.39691001 -0.54166001 -1.4635
0.39972001 -0.54168999 -1.4636
0.4012 -0.54040003 -1.4601001
0.40200001 -0.53846997 -1.4549
0.40211001 -0.53587002 -1.4479001
0.40220001 -0.53328001 -1.4409
0.40191999 -0.53037 -1.433
0.40263 -0.52842999 -1.4278001
0.40436 -0.52748001 -1.4252
0.40538999 -0.52587003 -1.4208
0.41086999 -0.52591002 -1.421
0.41396001 -0.52625 -1.4219
-0.097043999 -0.53863001 -1.4599
-0.094576001 -0.53863001 -1.4599
-0.092107996 -0.53863001 -1.4599
-0.089649998 -0.53793001 -1.4579999
-0.087178998 -0.53827 -1.4589
-0.084748 -0.53688002 -1.4551001
-0.082235999 -0.53860998 -1.4598
-0.079792999 -0.53789997 -1.4579
-0.077329002 -0.53789002 -1.4579
-0.074864998 -0.53788 -1.4578
-0.072401002 -0.53786999 -1.4578
-0.069917999 -0.53820002 -1.4586999
-0.067473002 -0.53783 -1.4577
-0.064985998 -0.53816003 -1.4586
-0.062521003 -0.53814 -1.4585
-0.060054999 -0.53811997 -1.4585
-0.05759 -0.5381 -1.4584
-0.055125002 -0.53807002 -1.4584
-0.052629001 -0.53838998 -1.4592
-0.050129 -0.53871 -1.4601001
-0.047626 -0.53903002 -1.4608999
-0.045155998 -0.53899997 -1.4608999
-0.042686 -0.53895998 -1.4608001
-0.040217001 -0.53893 -1.4607
-0.037831001 -0.53820002 -1.4586999
-0.035278998 -0.53886002 -1.4605
-0.032855 -0.53846997 -1.4594001
-0.030340999 -0.53877997 -1.4603
-0.027921 -0.53838998 -1.4592
-0.025556 -0.53766 -1.4572001
-0.023145 -0.53727001 -1.4562
-0.02063 -0.53757 -1.457
-0.018056 -0.53821999 -1.4586999
-0.015705001 -0.53748 -1.4567
-0.013125 -0.53811997 -1.4585
-0.010538 -0.53876001 -1.4602
-0.0080693997 -0.53869998 -1.4601001
-0.0055367998 -0.53899002 -1.4608999
-0.0031997 -0.53825003 -1.4588
-0.00066586997 -0.53854001 -1.4596
0.0018014 -0.53847998 -1.4595
0.0042683999 -0.53842002 -1.4593
0.0067349998 -0.53834999 -1.4591
0.0092762997 -0.53864002 -1.4599
0.011974 -0.53961003 -1.4625
0.01429 -0.53885001 -1.4605
0.016759001 -0.53877997 -1.4603
0.019227 -0.53871 -1.4601001
0.021694999 -0.53864002 -1.4599
0.024078 -0.53821999 -1.4588
0.026543001 -0.53815001 -1.4586
0.029008999 -0.53807002 -1.4584
0.031564001 -0.53833997 -1.4591
0.034123 -0.53860998 -1.4598
0.036589999 -0.53852999 -1.4596
0.039248999 -0.53913999 -1.4612
0.041719001 -0.53904998 -1.461
0.044287998 -0.53930998 -1.4617
0.04676 -0.53922999 -1.4615
0.049229998 -0.53913999 -1.4612
0.051491 -0.53836 -1.4591
0.054063998 -0.53862 -1.4598
0.056747999 -0.53921002 -1.4614
0.059438001 -0.53981 -1.4631
0.062022999 -0.54005998 -1.4637001
0.064497001 -0.53996003 -1.4635
0.067201003 -0.54054999 -1.4651
0.069794998 -0.54079002 -1.4657
0.072155997 -0.54035002 -1.4645
0.074151002 -0.53886998 -1.4605
0.076742001 -0.53911 -1.4612
0.079089001 -0.53865999 -1.4599
0.081807002 -0.53924 -1.4615
0.084532 -0.53982002 -1.4631
0.087004997 -0.53970999 -1.4628
0.089608997 -0.53994 -1.4634
0.091950998 -0.53947997 -1.4622
0.094288997 -0.53902 -1.4608999
0.096758001 -0.53890997 -1.4606
0.099090002 -0.53845 -1.4594001
0.10156 -0.53833002 -1.459
0.10402 -0.53820997 -1.4586999
0.10692 -0.53911 -1.4612
0.10953 -0.53933001 -1.4618
0.11215 -0.53955001 -1.4624
0.11447 -0.53908002 -1.4611
0.11694 -0.53895003 -1.4607
0.11926 -0.53847998 -1.4595
0.12203 -0.53903002 -1.461
0.12435 -0.53855002 -1.4597
0.12681 -0.53842002 -1.4593
0.12928 -0.53828001 -1.4589
0.13207 -0.53882998 -1.4604
0.13485999 -0.53937 -1.4619
0.13733 -0.53922999 -1.4615
0.14013 -0.53977001 -1.4630001
0.1426 -0.53963 -1.4626
0.14508 -0.53947997 -1.4622
0.14805999 -0.54035997 -1.4646
0.15053 -0.54021001 -1.4642
0.15301 -0.54005998 -1.4637001
0.15496001 -0.53889 -1.4606
0.15778001 -0.53942001 -1.462
0.16043 -0.53960001 -1.4625
0.16308001 -0.53978997 -1.4630001
0.16538 -0.53929001 -1.4617
0.16785 -0.53912997 -1.4612
0.1705 -0.53930998 -1.4617
0.17316 -0.53948998 -1.4622
0.17563 -0.53931999 -1.4617
0.1781 -0.53916001 -1.4613
0.18076999 -0.53933001 -1.4618
0.18363 -0.53983998 -1.4631
0.18610001 -0.53966999 -1.4627
0.18856999 -0.5395 -1.4622
0.19124 -0.53965998 -1.4627
0.19412 -0.54017001 -1.464
0.19639 -0.53965002 -1.4626
0.19886 -0.53947002 -1.4622
0.20133001 -0.53929001 -1.4617
0.20400999 -0.53944999 -1.4621
0.20669 -0.53961003 -1.4625
0.20917 -0.53942001 -1.462
0.21206 -0.53991002 -1.4633
0.21475001 -0.54005998 -1.4638
0.21765999 -0.54054999 -1.4651
0.21991999 -0.54001999 -1.4636
0.22261 -0.54017001 -1.464
0.22509 -0.53996998 -1.4635
0.22801 -0.54044998 -1.4648
0.23049 -0.54026002 -1.4643
0.23296 -0.54005998 -1.4637001
0.23521 -0.53952003 -1.4622999
0.23722 -0.53864998 -1.4599
0.24015 -0.53912002 -1.4612
0.24355 -0.54026002 -1.4643
0.24603 -0.54005003 -1.4637001
0.2485 -0.53983998 -1.4632
0.25121999 -0.53996998 -1.4635
0.25369 -0.53975999 -1.4629
0.25639999 -0.53987998 -1.4633
0.25887999 -0.53966999 -1.4627
0.26135001 -0.53944999 -1.4621
0.26431999 -0.53991002 -1.4633
0.26729 -0.54035997 -1.4646
0.26951 -0.53979999 -1.4630001
0.27224001 -0.53991002 -1.4633
0.27522001 -0.54035997 -1.4646
0.27794999 -0.54047 -1.4649
0.28042999 -0.54023999 -1.4642
0.28290001 -0.54000998 -1.4636
0.2859 -0.54044998 -1.4648
0.28837001 -0.54022002 -1.4642
0.29111001 -0.54031998 -1.4644001
0.29359001 -0.54008001 -1.4638
0.29606 -0.53985 -1.4632
0.29854 -0.53961003 -1.4625
0.30101001 -0.53937 -1.4619
0.30348 -0.53912997 -1.4612
0.30677 -0.53987998 -1.4633
0.30897 -0.53930998 -1.4617
0.31226999 -0.54005998 -1.4637001
0.31474999 -0.53981 -1.4631
0.31806001 -0.54056001 -1.4651
0.32054001 -0.54031003 -1.4644001
0.32302001 -0.54005003 -1.4637001
0.32578 -0.54013002 -1.4639
0.32911 -0.54087001 -1.4658999
0.33159 -0.54061002 -1.4651999
0.33407 -0.54035002 -1.4645
0.33625001 -0.53975999 -1.4629
0.33902001 -0.53983003 -1.4631
0.34178999 -0.53988999 -1.4633
0.34456 -0.53996003 -1.4635
0.34672999 -0.53935999 -1.4618
0.3495 -0.53942001 -1.462
0.35227999 -0.53947997 -1.4622
0.35536 -0.53987002 -1.4632
0.35874999 -0.54057997 -1.4651999
0.36092001 -0.53997999 -1.4635
0.36432001 -0.54069 -1.4654
0.36680001 -0.54040998 -1.4647
0.36958 -0.54045999 -1.4648
0.37268999 -0.54083002 -1.4658
0.37485 -0.54022002 -1.4642
0.37764001 -0.54026002 -1.4643
0.38012001 -0.53996998 -1.4635
0.38356 -0.54066998 -1.4654
0.38635001 -0.54070997 -1.4655
0.38883001 -0.54040998 -1.4647
0.39196 -0.54076999 -1.4657
0.39410999 -0.54014999 -1.464
0.39658999 -0.53985 -1.4632
0.39906001 -0.53955001 -1.4624
0.4012 -0.53893 -1.4607
0.40367001 -0.53862 -1.4599
0.40345001 -0.53570998 -1.452
0.40321001 -0.53280002 -1.4441
0.40395001 -0.53087002 -1.4388
0.40400001 -0.52828997 -1.4318
0.40402001 -0.52570999 -1.4248
-0.097043999 -0.53753 -1.4613
-0.094573997 -0.53753 -1.4613
-0.092101 -0.53786999 -1.4622999
-0.08963 -0.53786999 -1.4622999
-0.087164998 -0.53751999 -1.4613
-0.084687002 -0.53785998 -1.4622
-0.082235999 -0.53715998 -1.4603
-0.079769 -0.53715003 -1.4603
-0.077301003 -0.53714001 -1.4603
-0.074801996 -0.53781003 -1.4621
-0.072330996 -0.53780001 -1.4621
-0.069879003 -0.53744 -1.4611
-0.067431003 -0.53707999 -1.4601001
-0.064940996 -0.53740001 -1.461
-0.062472001 -0.53737998 -1.4608999
-0.060003001 -0.53736001 -1.4608999
-0.057562001 -0.53698999 -1.4599
-0.055066001 -0.53731 -1.4608001
-0.052597001 -0.53728998 -1.4607
-0.050062999 -0.53794998 -1.4625
-0.047626 -0.53758001 -1.4615
-0.045228999 -0.53685999 -1.4595
-0.042762998 -0.53681999 -1.4594001
-0.040297002 -0.53679001 -1.4593
-0.03779 -0.53710002 -1.4602
-0.035321999 -0.53706002 -1.4601001
-0.032809999 -0.53737003 -1.4608999
-0.030293999 -0.53767997 -1.4617
-0.027822999 -0.53763998 -1.4615999
-0.025353 -0.53759003 -1.4615
-0.022884 -0.53754997 -1.4614
-0.02036 -0.53785002 -1.4622
-0.017945001 -0.53746003 -1.4612
-0.015533 -0.53706002 -1.4601001
-0.013066 -0.53701001 -1.4599
-0.010416 -0.53799999 -1.4626
-0.0078811003 -0.53829002 -1.4634
-0.0054723001 -0.53789002 -1.4622999
-0.0031334001 -0.53714001 -1.4603
-0.00059789 -0.53742999 -1.4611
0.0020105999 -0.53806001 -1.4628
0.0044828001 -0.53799999 -1.4626
0.0068814 -0.53759998 -1.4615
0.0092762997 -0.53719002 -1.4604
0.011821 -0.53746998 -1.4612
0.014368 -0.53773999 -1.4619
0.016838999 -0.53767997 -1.4617
0.019391 -0.53794998 -1.4625
0.021863 -0.53788 -1.4622999
0.024419 -0.53815001 -1.4630001
0.026718 -0.53738999 -1.461
0.029185999 -0.53732002 -1.4608001
0.031564001 -0.53688997 -1.4596
0.034215 -0.53750002 -1.4613
0.036683999 -0.53741997 -1.4611
0.039248999 -0.53768998 -1.4618
0.042011999 -0.53863001 -1.4644001
0.044487 -0.53855002 -1.4641
0.046962 -0.53846002 -1.4639
0.049435999 -0.53838003 -1.4637001
0.0517 -0.53759998 -1.4615
0.054382998 -0.53820002 -1.4632
0.057071 -0.53878999 -1.4648
0.059767 -0.53938001 -1.4664
0.062245 -0.53929001 -1.4661
0.064723998 -0.53918999 -1.4658999
0.067087002 -0.53874999 -1.4647
0.069095999 -0.53728002 -1.4607
0.071800001 -0.53785998 -1.4622999
0.074151002 -0.53741997 -1.461
0.076986 -0.53833997 -1.4636
0.079458997 -0.53824002 -1.4633
0.082308002 -0.53916001 -1.4658
0.084785998 -0.53904998 -1.4655
0.087263003 -0.53894001 -1.4651999
0.089869998 -0.53917003 -1.4658
0.092479996 -0.53939998 -1.4664
0.095091999 -0.53963 -1.467
0.097165003 -0.53847998 -1.4639
0.099639997 -0.53837001 -1.4636
0.1017 -0.53722 -1.4605
0.10402 -0.53675997 -1.4593
0.1072 -0.53834999 -1.4636
0.10996 -0.53890002 -1.4651
0.11259 -0.53912002 -1.4657
0.11492 -0.53864998 -1.4644001
0.11754 -0.53886998 -1.465
0.11986 -0.53838998 -1.4637001
0.12234 -0.53825998 -1.4633
0.12497 -0.53846997 -1.4639
0.12744001 -0.53833997 -1.4635
0.1296 -0.53751999 -1.4613
0.13270999 -0.53873998 -1.4647
0.13518 -0.53860998 -1.4643
0.13782001 -0.53881001 -1.4648
0.14029001 -0.53865999 -1.4644001
0.14327 -0.53953999 -1.4668
0.14575 -0.53939003 -1.4664
0.14805999 -0.53890997 -1.4651
0.15036 -0.53842002 -1.4638
0.15284 -0.53827 -1.4634
0.15548 -0.53846002 -1.4639
0.15831 -0.53898001 -1.4653
0.16114999 -0.53951001 -1.4667
0.16326 -0.53867 -1.4645
0.16556001 -0.53817999 -1.4631
0.16802999 -0.53802001 -1.4627
0.17106 -0.53887999 -1.465
0.17391001 -0.53939003 -1.4664
0.1762 -0.53889 -1.465
0.17887001 -0.53906 -1.4655
0.18115 -0.53855997 -1.4641
0.18381999 -0.53873003 -1.4646
0.18610001 -0.53821999 -1.4632
0.18897 -0.53872001 -1.4646
0.19183999 -0.53922999 -1.466
0.19452 -0.53939003 -1.4664
0.197 -0.53921002 -1.4658999
0.19927 -0.53869998 -1.4645
0.20175 -0.53851998 -1.464
0.20484 -0.53934997 -1.4663
0.20669 -0.53816003 -1.4631
0.20917 -0.53797001 -1.4626
0.21269999 -0.53947002 -1.4665999
0.21517999 -0.53929001 -1.4661
0.21788 -0.53943002 -1.4665
0.22035 -0.53924 -1.466
0.22305 -0.53939003 -1.4664
0.22553 -0.53920001 -1.4658999
0.22823 -0.53934002 -1.4663
0.23049 -0.5388 -1.4648
0.23296 -0.53860998 -1.4643
0.23544 -0.53841001 -1.4637001
0.23791 -0.53820002 -1.4632
0.24108 -0.53900999 -1.4654
0.24355 -0.53881001 -1.4648
0.24603 -0.53860003 -1.4643
0.24874 -0.53873003 -1.4646
0.25169 -0.53918999 -1.4658999
0.25417 -0.53898001 -1.4653
0.25665 -0.53877002 -1.4647
0.25887999 -0.53821999 -1.4632
0.26111001 -0.53767002 -1.4617
0.26407 -0.53811997 -1.4630001
0.26754001 -0.53924 -1.466
0.27026001 -0.53934997 -1.4663
0.27298999 -0.53946 -1.4665999
0.27445999 -0.53790998 -1.4624
0.27717999 -0.53801 -1.4627
0.28016999 -0.53846002 -1.4639
0.28342 -0.53922999 -1.466
0.2859 -0.53899997 -1.4653
0.28837001 -0.53877002 -1.4647
0.29085001 -0.53852999 -1.4641
0.29385999 -0.53895998 -1.4651999
0.29712999 -0.53973001 -1.4673001
0.29960999 -0.53948998 -1.4667
0.30208999 -0.53925002 -1.466
0.30511001 -0.53966999 -1.4672
0.30787 -0.53975999 -1.4674
0.31035 -0.53952003 -1.4667
0.31283 -0.53926998 -1.4661
0.31531 -0.53902 -1.4654
0.31806001 -0.53909999 -1.4656
0.32082 -0.53917998 -1.4658
0.32273 -0.53827 -1.4634
0.32578 -0.53868002 -1.4645
0.32881999 -0.53908002 -1.4656
0.33188 -0.53948998 -1.4667
0.33436 -0.53922999 -1.466
0.33684 -0.53896999 -1.4653
0.33961001 -0.53904003 -1.4654
0.34237999 -0.53909999 -1.4656
0.34514999 -0.53917003 -1.4658
0.34823 -0.53956002 -1.4669
0.35131001 -0.53995001 -1.4679
0.35319 -0.53902 -1.4654
0.35626999 -0.53939998 -1.4664
0.35967001 -0.54012001 -1.4684
0.36215001 -0.53983998 -1.4676
0.36463001 -0.53956002 -1.4669
0.36741999 -0.53961003 -1.467
0.36927 -0.53868002 -1.4645
0.37175 -0.53838998 -1.4637001
0.37454 -0.53843999 -1.4638
0.37733001 -0.53847998 -1.4639
0.38012001 -0.53851998 -1.464
0.38387999 -0.53953999 -1.4668
0.38699999 -0.5399 -1.4678
0.38947999 -0.53961003 -1.467
0.39162999 -0.53899002 -1.4653
0.39410999 -0.53869998 -1.4645
0.39658999 -0.53839999 -1.4637001
0.39972001 -0.53874999 -1.4647
0.40087 -0.53715003 -1.4603
0.40200001 -0.53555 -1.456
0.40077001 -0.53166997 -1.4454
0.40051001 -0.52877003 -1.4375
0.40123999 -0.52683997 -1.4323
0.40195 -0.52491999 -1.4270999
0.40299001 -0.52332002 -1.4227
0.40504 -0.52270001 -1.421
0.40777999 -0.52271998 -1.4211
-0.097043999 -0.53643 -1.4628
-0.094572 -0.53643 -1.4628
-0.092096999 -0.53676999 -1.4637001
-0.089635 -0.53608 -1.4619
-0.087150998 -0.53675997 -1.4637001
-0.084678002 -0.53675997 -1.4637001
-0.082194999 -0.53709 -1.4646
-0.079719998 -0.53707999 -1.4646
-0.077244997 -0.53706998 -1.4646
-0.074754998 -0.53740001 -1.4655
-0.072296001 -0.53704 -1.4645
-0.069821998 -0.53702998 -1.4644001
-0.067368001 -0.53667003 -1.4635
-0.064896002 -0.53665 -1.4634
-0.062447999 -0.53628999 -1.4624
-0.059951 -0.53661001 -1.4633
-0.057562001 -0.53555 -1.4604
-0.055036001 -0.53622001 -1.4622
-0.052535001 -0.53653002 -1.4631
-0.049996998 -0.53719997 -1.4649
-0.047591001 -0.53648001 -1.4629
-0.045155998 -0.53609997 -1.4619
-0.042762998 -0.53538001 -1.46
-0.040137 -0.53672999 -1.4636
-0.037579998 -0.53737998 -1.4654
-0.035191 -0.53665 -1.4634
-0.032719001 -0.53662002 -1.4633
-0.030246999 -0.53658003 -1.4632
-0.027726 -0.53688002 -1.464
-0.025251999 -0.53684002 -1.4639
-0.022779001 -0.53679001 -1.4638
-0.020306 -0.53675002 -1.4637001
-0.017833 -0.53670001 -1.4636
-0.015533 -0.53561997 -1.4606
-0.013125 -0.53522998 -1.4595
-0.010477 -0.53621 -1.4622
-0.0077555999 -0.53753 -1.4658
-0.0053432998 -0.53713 -1.4647
-0.0029347001 -0.53672999 -1.4636
-0.00039393001 -0.53702003 -1.4644001
0.0022895001 -0.53798997 -1.4671
0.0048401002 -0.53827 -1.4678
0.0071743 -0.53753 -1.4658
0.0096509997 -0.53746003 -1.4656
0.012204 -0.53773999 -1.4664
0.014682 -0.53767002 -1.4662
0.016919 -0.53658003 -1.4632
0.019555001 -0.53719002 -1.4649
0.021694999 -0.53574997 -1.461
0.024505001 -0.53705001 -1.4645
0.026892001 -0.53662997 -1.4634
0.029453 -0.53689998 -1.4641
0.032108001 -0.53750998 -1.4658
0.034492001 -0.53709 -1.4646
0.036967002 -0.53701001 -1.4644001
0.039441001 -0.53693002 -1.4642
0.04211 -0.53753 -1.4658
0.044585999 -0.53745002 -1.4656
0.047063001 -0.53736001 -1.4654
0.049538001 -0.53727001 -1.4651
0.051805001 -0.53649998 -1.4630001
0.054489002 -0.53709 -1.4646
0.057287 -0.53803003 -1.4672
0.059767 -0.53794003 -1.4669
0.062022999 -0.53715998 -1.4648
0.064383999 -0.53671998 -1.4636
0.066857003 -0.53662002 -1.4633
0.069211997 -0.53618002 -1.4621
0.072036996 -0.53710997 -1.4647
0.074752003 -0.53768998 -1.4662
0.077350996 -0.53792 -1.4669
0.079458997 -0.53679001 -1.4638
0.082183003 -0.53737003 -1.4654
0.084659003 -0.53726 -1.4651
0.087392002 -0.53783 -1.4665999
0.090131 -0.53841001 -1.4682
0.092611998 -0.53829002 -1.4679
0.094958998 -0.53784001 -1.4665999
0.097165003 -0.53704 -1.4645
0.099639997 -0.53692001 -1.4642
0.10197 -0.53645998 -1.4629
0.10416 -0.53566003 -1.4607
0.10692 -0.53622001 -1.4622
0.10953 -0.53644001 -1.4628
0.11229 -0.53698999 -1.4643
0.11477 -0.53687 -1.464
0.11754 -0.53741997 -1.4655
0.12002 -0.53728998 -1.4651999
0.12249 -0.53715998 -1.4648
0.12481 -0.53669 -1.4635
0.12744001 -0.53688997 -1.4641
0.13022999 -0.53744 -1.4656
0.13287 -0.53763998 -1.4661
0.13518 -0.53715998 -1.4648
0.13749 -0.53667998 -1.4635
0.1398 -0.53619999 -1.4622
0.14244001 -0.53640002 -1.4627
0.14541 -0.53727001 -1.4651
0.14805999 -0.53746003 -1.4656
0.15053 -0.53731 -1.4651999
0.15301 -0.53715998 -1.4648
0.15601 -0.53803003 -1.4672
0.15849 -0.53788 -1.4668
0.16133 -0.53839999 -1.4682
0.16362999 -0.53790998 -1.4668
0.16592 -0.53741002 -1.4655
0.16821 -0.53691 -1.4641
0.17087001 -0.53709 -1.4646
0.17391001 -0.53794003 -1.4669
0.17658 -0.53811997 -1.4674
0.17925 -0.53829002 -1.4679
0.18154 -0.53779 -1.4665
0.18421 -0.53795999 -1.467
0.18688001 -0.53811997 -1.4674
0.18956 -0.53829002 -1.4679
0.19183999 -0.53777999 -1.4665
0.19431999 -0.53760999 -1.466
0.19679999 -0.53742999 -1.4655
0.19927 -0.53724998 -1.4651
0.20175 -0.53706998 -1.4646
0.20525999 -0.53858 -1.4687001
0.20773999 -0.53838998 -1.4682
0.21021999 -0.53820997 -1.4677
0.21249001 -0.53768998 -1.4662
0.2154 -0.53817999 -1.4676
0.21809 -0.53832 -1.4680001
0.22057 -0.53812999 -1.4675
0.22305 -0.53794003 -1.4669
0.22597 -0.53842002 -1.4682
0.22845 -0.53821999 -1.4677
0.23071 -0.53768998 -1.4663
0.23341 -0.53783 -1.4665999
0.23635 -0.53829998 -1.4679
0.23906 -0.53843999 -1.4683
0.24154 -0.53823 -1.4677
0.24355 -0.53736001 -1.4653
0.24603 -0.53715003 -1.4648
0.24874 -0.53728002 -1.4651
0.25169 -0.53773999 -1.4664
0.25465 -0.53820002 -1.4676
0.25737 -0.53832 -1.4680001
0.26010001 -0.53843999 -1.4683
0.26258001 -0.53823 -1.4677
0.26530001 -0.53833997 -1.4680001
0.26778001 -0.53812999 -1.4674
0.27050999 -0.53824002 -1.4677
0.27274001 -0.53767997 -1.4662
0.27497 -0.53713 -1.4647
0.27744001 -0.53689998 -1.4641
0.28042999 -0.53733999 -1.4653
0.28316 -0.53745002 -1.4656
0.28641999 -0.53821999 -1.4677
0.28863999 -0.53764999 -1.4661
0.29137999 -0.53775001 -1.4664
0.29464999 -0.53851002 -1.4685
0.29767001 -0.53894001 -1.4697
0.30015001 -0.53869998 -1.469
0.30289999 -0.5388 -1.4693
0.30566001 -0.53889 -1.4694999
0.30842 -0.53896999 -1.4698
0.31145 -0.53939003 -1.4709001
0.31393999 -0.53915 -1.4701999
0.31641999 -0.53890002 -1.4694999
0.31834 -0.53798997 -1.4671
0.32082 -0.53773999 -1.4664
0.32273 -0.53683001 -1.4639
0.32663 -0.53821999 -1.4677
0.32881999 -0.53763998 -1.4661
0.33188 -0.53803998 -1.4672
0.33407 -0.53745002 -1.4656
0.33684 -0.53751999 -1.4658
0.33961001 -0.53759003 -1.466
0.34297001 -0.53830999 -1.4679
0.34604001 -0.53871 -1.469
0.34852999 -0.53843999 -1.4683
0.35131001 -0.53850001 -1.4685
0.35409001 -0.53855997 -1.4686
0.35718 -0.53894001 -1.4697
0.35997 -0.53899002 -1.4698
0.36245 -0.53872001 -1.4691
0.36493999 -0.53843999 -1.4683
0.36804 -0.53882003 -1.4693
0.36989999 -0.53788 -1.4668
0.37332001 -0.53858 -1.4687001
0.37580001 -0.53829998 -1.4679
0.3786 -0.53833997 -1.4680001
0.38108 -0.53806001 -1.4672
0.38356 -0.53776997 -1.4665
0.38828999 -0.53975999 -1.4719
0.39078 -0.53947002 -1.4711
0.39326 -0.53917003 -1.4703
0.39574999 -0.53887999 -1.4694999
0.39822999 -0.53858 -1.4687001
0.39906001 -0.53666002 -1.4634
0.40020001 -0.53505999 -1.4591
0.39932999 -0.53151 -1.4493999
0.40009999 -0.52959001 -1.4442
0.39984 -0.52670002 -1.4363
0.40090001 -0.52511001 -1.4319
0.40298 -0.52447999 -1.4302
0.40299001 -0.52192003 -1.4232
-0.097043999 -0.53455001 -1.4624
-0.094564997 -0.53627002 -1.4671
-0.092087001 -0.53626001 -1.4671
-0.089619003 -0.53557003 -1.4651999
-0.087150998 -0.53522998 -1.4643
-0.084669001 -0.53556001 -1.4651999
-0.082194999 -0.53555 -1.4651999
-0.079682998 -0.53657001 -1.4680001
-0.077230997 -0.53588003 -1.4661
-0.074771002 -0.53552002 -1.4651
-0.072296001 -0.53551 -1.4651
-0.069821998 -0.53548998 -1.465
-0.067326002 -0.53582001 -1.4658999
-0.064873002 -0.53546 -1.4649
-0.062374 -0.53578001 -1.4658
-0.059951 -0.53507 -1.4639
-0.057479002 -0.53504997 -1.4638
-0.054977 -0.53536999 -1.4647
-0.052439999 -0.53602999 -1.4665
-0.049897 -0.53669 -1.4683
-0.047451999 -0.53631002 -1.4673001
-0.045046002 -0.53560001 -1.4653
-0.042610001 -0.53522003 -1.4643
-0.040057 -0.53588003 -1.4661
-0.037579998 -0.53583997 -1.466
-0.035061002 -0.53614998 -1.4668
-0.032719001 -0.53508002 -1.4639
-0.030246999 -0.53504002 -1.4638
-0.027726 -0.53534001 -1.4646
-0.025251999 -0.53530002 -1.4645
-0.022779001 -0.53526002 -1.4644001
-0.020252001 -0.53555 -1.4651999
-0.017720999 -0.53584999 -1.466
-0.015245 -0.53579998 -1.4658999
-0.012947 -0.53472 -1.4629
-0.010294 -0.53570002 -1.4656
-0.0076927999 -0.53632998 -1.4673001
-0.0051497999 -0.53662002 -1.4681
-0.0026697 -0.53657001 -1.4680001
-0.000122 -0.53684998 -1.4687001
0.0023592 -0.53679001 -1.4686
0.0048401002 -0.53672999 -1.4684
0.0073207002 -0.53667003 -1.4682
0.0098008998 -0.53661001 -1.4681
0.012127 -0.53586 -1.466
0.014682 -0.53613001 -1.4668
0.016999001 -0.53538001 -1.4647
0.019472999 -0.53530997 -1.4645
0.021946 -0.53523999 -1.4643
0.024419 -0.53517002 -1.4641
0.026978999 -0.53544003 -1.4649
0.029541999 -0.53570998 -1.4656
0.032108001 -0.53596997 -1.4663
0.034584001 -0.53588998 -1.4661
0.036967002 -0.53547001 -1.465
0.039728001 -0.53641999 -1.4675
0.042206999 -0.53632998 -1.4673001
0.044686001 -0.53625 -1.4671
0.047063001 -0.53582001 -1.4658999
0.049538001 -0.53574002 -1.4657
0.052014001 -0.53565001 -1.4654
0.054489002 -0.53556001 -1.4651999
0.056747999 -0.53478003 -1.4631
0.059218001 -0.53469002 -1.4628
0.061687998 -0.53460002 -1.4626
0.064723998 -0.53621 -1.467
0.067316003 -0.53645003 -1.4676
0.069678999 -0.53601003 -1.4664
0.072036996 -0.53557003 -1.4651999
0.074631996 -0.53580999 -1.4658999
0.077473 -0.53671998 -1.4684
0.079582997 -0.53560001 -1.4653
0.082433 -0.53650999 -1.4678
0.084785998 -0.53605998 -1.4665999
0.087520003 -0.53662997 -1.4681
0.089869998 -0.53618002 -1.4669
0.092215002 -0.53573 -1.4657
0.094825 -0.53596002 -1.4663
0.097300999 -0.53583997 -1.466
0.099776998 -0.53571999 -1.4656
0.10225 -0.53560001 -1.4653
0.10515 -0.53649998 -1.4678
0.10749 -0.53604001 -1.4665
0.10982 -0.53557998 -1.4653
0.11229 -0.53544998 -1.4649
0.11492 -0.53566998 -1.4655
0.11784 -0.53656 -1.4679
0.12032 -0.53643 -1.4676
0.1228 -0.5363 -1.4672
0.12558 -0.53684002 -1.4687001
0.12838 -0.53738999 -1.4701999
0.13086 -0.53724998 -1.4698
0.13335 -0.53711998 -1.4694999
0.13583 -0.53697997 -1.4691
0.13846999 -0.53718001 -1.4696
0.14094999 -0.53702998 -1.4692
0.14309999 -0.53621 -1.467
0.14557999 -0.53606999 -1.4665999
0.14839999 -0.53659999 -1.4680001
0.15105 -0.53679001 -1.4686
0.15353 -0.53663999 -1.4682
0.15601 -0.53649002 -1.4677
0.15849 -0.53634 -1.4673001
0.16150001 -0.53719997 -1.4697
0.16399001 -0.53704 -1.4692
0.16629 -0.53654999 -1.4679
0.16858 -0.53605002 -1.4665
0.17124 -0.53623003 -1.467
0.17372 -0.53606999 -1.4665999
0.17639001 -0.53623998 -1.4671
0.17906 -0.53640997 -1.4675
0.18154 -0.53625 -1.4671
0.18440001 -0.53675002 -1.4685
0.18727 -0.53726 -1.4698
0.18976 -0.53709 -1.4694
0.19183999 -0.53623998 -1.4671
0.19472 -0.53674001 -1.4684
0.19761001 -0.53724003 -1.4698
0.20009001 -0.53706002 -1.4693
0.20277999 -0.53722 -1.4697
0.20525999 -0.53702998 -1.4692
0.20795 -0.53719002 -1.4697
0.21021999 -0.53667003 -1.4682
0.21269999 -0.53648001 -1.4677
0.21583 -0.53729999 -1.47
0.21831 -0.53711998 -1.4694999
0.22079 -0.53693002 -1.4689
0.22327 -0.53674001 -1.4684
0.2262 -0.53720999 -1.4697
0.22868 -0.53702003 -1.4692
0.23093 -0.53649002 -1.4677
0.23364 -0.53662002 -1.4681
0.23612 -0.53643 -1.4676
0.2386 -0.53623003 -1.467
0.24131 -0.53636003 -1.4674
0.24355 -0.53582001 -1.4658999
0.2465 -0.53627998 -1.4672
0.24898 -0.53608 -1.4665999
0.25145 -0.53587002 -1.466
0.25441 -0.53632998 -1.4673001
0.25713 -0.53645003 -1.4676
0.25985 -0.53657001 -1.4680001
0.26233 -0.53635001 -1.4674
0.26456001 -0.53579998 -1.4658999
0.26704001 -0.53558999 -1.4653
0.27050999 -0.53670001 -1.4683
0.27298999 -0.53648001 -1.4677
0.27573001 -0.53658998 -1.4680001
0.27794999 -0.53602999 -1.4665
0.28119999 -0.53680003 -1.4686
0.28290001 -0.53557998 -1.4651999
0.28694001 -0.53733999 -1.4701
0.28916001 -0.53678 -1.4685
0.29190999 -0.53687 -1.4687999
0.29412001 -0.53631002 -1.4673001
0.29793 -0.53772998 -1.4711
0.30041999 -0.53749001 -1.4705
0.30289999 -0.53724998 -1.4698
0.30566001 -0.53733999 -1.4701
0.30842 -0.53742999 -1.4703
0.31062001 -0.53685999 -1.4687001
0.31338 -0.53693998 -1.469
0.31641999 -0.53735 -1.4701
0.31862 -0.53678 -1.4685
0.32139 -0.53685999 -1.4687001
0.32387 -0.53659999 -1.4681
0.32692 -0.53701001 -1.4692
0.32969001 -0.53707999 -1.4694
0.33217001 -0.53683001 -1.4687001
0.33465001 -0.53657001 -1.4680001
0.33770999 -0.53697002 -1.469
0.34108001 -0.53768998 -1.471
0.34327 -0.53710002 -1.4694
0.34575 -0.53683001 -1.4687001
0.34823 -0.53657001 -1.4680001
0.35100999 -0.53662997 -1.4681
0.35349 -0.53636003 -1.4674
0.35749 -0.53772002 -1.4711
0.36028001 -0.53777999 -1.4713
0.36338001 -0.53816003 -1.4723001
0.36585999 -0.53788 -1.4715
0.36866 -0.53793001 -1.4717
0.37145999 -0.53797001 -1.4718
0.37393999 -0.53768998 -1.471
0.37643 -0.53741002 -1.4703
0.37891001 -0.53713 -1.4694999
0.38139999 -0.53684002 -1.4687001
0.38516 -0.53785002 -1.4715
0.38764 -0.53755999 -1.4707
0.39078 -0.53792 -1.4717
0.39196 -0.53632998 -1.4673001
0.39542001 -0.53701001 -1.4692
0.39658999 -0.53542 -1.4648
0.40005001 -0.53609002 -1.4667
0.4012 -0.5345 -1.4622999
0.40099999 -0.53161001 -1.4543999
0.40110001 -0.52904999 -1.4474
0.40118 -0.52648997 -1.4404
0.40226001 -0.52489001 -1.436
0.40263 -0.52266002 -1.4299001
0.40299001 -0.52042001 -1.4238
0.40504 -0.51980001 -1.4220999
-0.097043999 -0.53402001 -1.4658
-0.094567001 -0.53435999 -1.4668
-0.092091002 -0.53435999 -1.4668
-0.089619003 -0.53400999 -1.4658
-0.087144002 -0.53400999 -1.4658
-0.084669001 -0.53399998 -1.4658
-0.082162999 -0.53501999 -1.4686
-0.079682998 -0.53500998 -1.4685
-0.077203996 -0.53500003 -1.4685
-0.074754998 -0.53430003 -1.4665999
-0.072260998 -0.53463 -1.4675
-0.069783002 -0.53460997 -1.4675
-0.067326002 -0.53425002 -1.4665
-0.064873002 -0.53389001 -1.4655
-0.062399 -0.53386998 -1.4654
-0.059898999 -0.53419 -1.4663
-0.057395 -0.53451002 -1.4672
-0.054917999 -0.53448999 -1.4671
-0.052439999 -0.53446001 -1.467
-0.049929999 -0.53478003 -1.4679
-0.047382001 -0.53543001 -1.4697
-0.044936001 -0.53505999 -1.4687001
-0.042495001 -0.53469002 -1.4677
-0.039976001 -0.53500003 -1.4685
-0.037455 -0.53530002 -1.4694
-0.035016999 -0.53492999 -1.4683
-0.032719001 -0.53351998 -1.4645
-0.030246999 -0.53347999 -1.4643
-0.027726 -0.53377998 -1.4651999
-0.025101 -0.53477001 -1.4679
-0.022622 -0.53472 -1.4678
-0.020036001 -0.53535998 -1.4694999
-0.017554 -0.53530997 -1.4694
-0.015073 -0.53526998 -1.4692
-0.012651 -0.53487003 -1.4682
-0.010172 -0.53482002 -1.4680001
-0.0076927999 -0.53477001 -1.4679
-0.0051497999 -0.53505999 -1.4687001
-0.0026697 -0.53500003 -1.4685
-0.00025796 -0.53460002 -1.4674
0.0021500001 -0.53420001 -1.4663
0.0046971999 -0.53447998 -1.4671
0.0072475001 -0.53476 -1.4679
0.0098008998 -0.53504002 -1.4686
0.012051 -0.53394997 -1.4656
0.014604 -0.53422999 -1.4664
0.016999001 -0.53381997 -1.4653
0.019637 -0.53443003 -1.467
0.022113999 -0.53435999 -1.4668
0.024590001 -0.53429002 -1.4665999
0.027153 -0.53456002 -1.4673001
0.029541999 -0.53413999 -1.4662
0.032017 -0.53407001 -1.466
0.034492001 -0.53399003 -1.4657
0.037248999 -0.53492999 -1.4683
0.039824001 -0.53518999 -1.469
0.042401999 -0.53544998 -1.4698
0.044884 -0.53536999 -1.4694999
0.047568001 -0.53596002 -1.4712
0.050051998 -0.53588003 -1.4709001
0.052327 -0.53511 -1.4687999
0.054595001 -0.53434002 -1.4667
0.056855001 -0.53355998 -1.4646
0.059657 -0.53448999 -1.4671
0.062357001 -0.53508002 -1.4687001
0.065176003 -0.53600001 -1.4713
0.067776002 -0.53623998 -1.4719
0.070145003 -0.53580999 -1.4707
0.072511002 -0.53535998 -1.4694999
0.074992001 -0.53526002 -1.4692
0.077595003 -0.53549999 -1.4699
0.080077 -0.53539002 -1.4696
0.082684003 -0.53562999 -1.4701999
0.085294001 -0.53586 -1.4709001
0.087649003 -0.53540999 -1.4696
0.090000004 -0.53495997 -1.4684
0.092215002 -0.53416997 -1.4662
0.095225997 -0.53540999 -1.4696
0.097843997 -0.53562999 -1.4703
0.10033 -0.53552002 -1.4699
0.10281 -0.53539997 -1.4696
0.10529 -0.53527999 -1.4693
0.10777 -0.53516001 -1.4689
0.11112 -0.53706998 -1.4742
0.11302 -0.53558999 -1.4701
0.11565 -0.53579998 -1.4707
0.11814 -0.53566998 -1.4704
0.12062 -0.53553998 -1.47
0.1231 -0.53540999 -1.4696
0.12558 -0.53527999 -1.4693
0.12853 -0.53615999 -1.4717
0.13101999 -0.53601998 -1.4713
0.13349999 -0.53588998 -1.471
0.13615 -0.53609002 -1.4715
0.13864 -0.53595001 -1.4711
0.14128 -0.53614002 -1.4717
0.14376999 -0.53600001 -1.4713
0.14642 -0.53618997 -1.4718
0.14891 -0.53605002 -1.4714
0.15121999 -0.53556001 -1.4701
0.15388 -0.53574997 -1.4706
0.15601 -0.53491998 -1.4683
0.15902001 -0.53578001 -1.4707
0.16168 -0.53596997 -1.4712
0.16417 -0.53580999 -1.4707
0.16665 -0.53565001 -1.4703
0.16877 -0.53482002 -1.4680001
0.17143001 -0.53500003 -1.4685
0.17447001 -0.53584999 -1.4708
0.17752001 -0.53669 -1.4732
0.18001001 -0.53653002 -1.4727
0.1825 -0.53636003 -1.4723001
0.18498001 -0.53618997 -1.4718
0.18708 -0.53535002 -1.4694999
0.18916 -0.53451002 -1.4672
0.19224 -0.53535002 -1.4694999
0.19532 -0.53618002 -1.4718
0.19761001 -0.53566998 -1.4704
0.20009001 -0.53548998 -1.4699
0.20298 -0.53597999 -1.4712
0.20588 -0.53647 -1.4726
0.20858 -0.53662997 -1.473
0.21086 -0.53610998 -1.4716001
0.21334 -0.53592002 -1.4711
0.21583 -0.53574002 -1.4705
0.21831 -0.53555 -1.47
0.22123 -0.53602999 -1.4713
0.22327 -0.53517002 -1.469
0.22642 -0.53597999 -1.4712
0.22912 -0.53612 -1.4716001
0.23183 -0.53626001 -1.472
0.23432 -0.53605998 -1.4714
0.23681 -0.53586 -1.4709001
0.23906 -0.53533 -1.4694
0.24177 -0.53546 -1.4698
0.24425 -0.53526002 -1.4692
0.24697 -0.53538001 -1.4696
0.24992 -0.53583997 -1.4708
0.25264999 -0.53596997 -1.4712
0.25488999 -0.53543001 -1.4697
0.25713 -0.53487998 -1.4682
0.25961 -0.53467 -1.4676
0.26209 -0.53446001 -1.467
0.2658 -0.5359 -1.471
0.26754001 -0.53469002 -1.4677
0.27076 -0.53546 -1.4698
0.2735 -0.53557003 -1.4701
0.27649 -0.53601003 -1.4713
0.27897 -0.53579003 -1.4707
0.28222999 -0.53656 -1.4728
0.28523001 -0.53698999 -1.474
0.28771999 -0.53675997 -1.4734
0.29021001 -0.53653002 -1.4727
0.29243001 -0.53596997 -1.4712
0.29545 -0.53640002 -1.4724
0.29793 -0.53615999 -1.4717
0.30123001 -0.53691 -1.4737999
0.30372 -0.53667003 -1.4730999
0.30566001 -0.53578001 -1.4706
0.30842 -0.53586 -1.4709001
0.31062001 -0.53529 -1.4693
0.31366 -0.53570998 -1.4705
0.31641999 -0.53579003 -1.4707
0.31946999 -0.53619999 -1.4718
0.32167 -0.53561997 -1.4701999
0.32444 -0.53570002 -1.4704
0.3272 -0.53577 -1.4706
0.32969001 -0.53552002 -1.4699
0.33217001 -0.53526002 -1.4692
0.33581001 -0.53631997 -1.4721
0.33917001 -0.53704 -1.4741
0.34196001 -0.53710002 -1.4743
0.34415001 -0.53650999 -1.4727
0.34722999 -0.53689998 -1.4737
0.34942001 -0.53631002 -1.4721
0.35220999 -0.53636998 -1.4723001
0.35499999 -0.53643 -1.4724
0.35778999 -0.53648001 -1.4726
0.36058 -0.53653997 -1.4727
0.36307001 -0.53626001 -1.472
0.36616999 -0.53663999 -1.473
0.36897001 -0.53667998 -1.4730999
0.37114999 -0.53608 -1.4715
0.37393999 -0.53612 -1.4716001
0.37643 -0.53583997 -1.4708
0.37955001 -0.53621 -1.4718
0.38235 -0.53625 -1.4719
0.38547999 -0.53661001 -1.4729
0.38828999 -0.53663999 -1.473
0.39078 -0.53635001 -1.4722
0.39326 -0.53605998 -1.4714
0.39542001 -0.53544003 -1.4697
0.39789999 -0.53514999 -1.4689
0.40005001 -0.53452998 -1.4672
0.40053001 -0.53228998 -1.4611
0.40000001 -0.52908999 -1.4523
0.40077001 -0.52718002 -1.4471
0.40085 -0.52463001 -1.4400001
0.40123999 -0.52240002 -1.4339
0.40024999 -0.51888001 -1.4243
0.40162 -0.51762003 -1.4208
-0.097043999 -0.53430998 -1.471
-0.094563998 -0.53363001 -1.4692
-0.092083998 -0.53363001 -1.4692
-0.089602999 -0.53362 -1.4691
-0.087136999 -0.53293997 -1.4672
-0.084642999 -0.53360999 -1.4691
-0.082162999 -0.53359997 -1.4691
-0.079671003 -0.53394002 -1.47
-0.077189997 -0.53391999 -1.47
-0.074771002 -0.53254998 -1.4662
-0.072260998 -0.53321999 -1.4680001
-0.069783002 -0.53320003 -1.4680001
-0.067326002 -0.53284001 -1.467
-0.064850003 -0.53281999 -1.4669
-0.062374 -0.53280002 -1.4669
-0.059872001 -0.53311998 -1.4678
-0.057367001 -0.53343999 -1.4686
-0.054887999 -0.53342003 -1.4686
-0.052409001 -0.53338999 -1.4685
-0.049929999 -0.53336 -1.4684
-0.047451999 -0.53333998 -1.4683
-0.044936001 -0.53364998 -1.4692
-0.042456001 -0.53360999 -1.4691
-0.039935999 -0.53391999 -1.47
-0.037370998 -0.53456998 -1.4717
-0.034929998 -0.53419 -1.4707
-0.032538 -0.53346997 -1.4687001
-0.030105 -0.53309 -1.4677
-0.027433001 -0.53442001 -1.4713
-0.024948999 -0.53437001 -1.4712
-0.022465 -0.53433001 -1.4711
-0.020036001 -0.53394002 -1.47
-0.01761 -0.53355998 -1.469
-0.01513 -0.53351003 -1.4687999
-0.01271 -0.53311998 -1.4677
-0.010233 -0.53307003 -1.4676
-0.0076927999 -0.53336 -1.4684
-0.0050853002 -0.53398001 -1.4701
-0.0025372 -0.53426999 -1.4709001
-0.000122 -0.53386998 -1.4698
0.0022197 -0.53312999 -1.4678
0.0048401002 -0.53375 -1.4694999
0.0073207002 -0.53368998 -1.4693
0.0098759001 -0.53397 -1.4701
0.012358 -0.53390002 -1.4699
0.014996 -0.53451997 -1.4716001
0.01732 -0.53377002 -1.4694999
0.019801 -0.53369999 -1.4694
0.022113999 -0.53294998 -1.4673001
0.024505001 -0.53254002 -1.4662
0.027153 -0.53315002 -1.4678
0.029631 -0.53307003 -1.4676
0.032017 -0.53266001 -1.4665
0.034584001 -0.53292 -1.4672
0.037248999 -0.53351998 -1.4687999
0.039728001 -0.53343999 -1.4686
0.042305 -0.53369999 -1.4693
0.044785 -0.53360999 -1.4691
0.047669001 -0.53487998 -1.4726
0.049743999 -0.53343999 -1.4686
0.052536 -0.53437001 -1.4712
0.055020001 -0.53428 -1.4709001
0.057611 -0.53452998 -1.4716001
0.060095999 -0.53443998 -1.4714
0.062691003 -0.53468001 -1.472
0.065176003 -0.53457999 -1.4718
0.067546003 -0.53415 -1.4706
0.069912001 -0.53371 -1.4694
0.072511002 -0.53394997 -1.47
0.075112 -0.53419 -1.4707
0.077595003 -0.53408003 -1.4704
0.080077 -0.53398001 -1.4701
0.083059996 -0.53522998 -1.4736
0.085294001 -0.53443998 -1.4714
0.087778002 -0.53433001 -1.4711
0.090131 -0.53388 -1.4699
0.092611998 -0.53377002 -1.4694999
0.095360003 -0.53433001 -1.4711
0.097843997 -0.53421998 -1.4708
0.10033 -0.5341 -1.4705
0.10281 -0.53398001 -1.4701
0.10529 -0.53386003 -1.4698
0.10777 -0.53373998 -1.4694999
0.11011 -0.53328001 -1.4682
0.11288 -0.53382999 -1.4697
0.11551 -0.53403997 -1.4703
0.11799 -0.53391999 -1.4699
0.12077 -0.53446001 -1.4714
0.12326 -0.53433001 -1.4711
0.12574001 -0.53420001 -1.4707
0.12807 -0.53372997 -1.4694
0.13055 -0.53359002 -1.4691
0.13287 -0.53311998 -1.4678
0.13534001 -0.53298002 -1.4674
0.13831 -0.53386003 -1.4698
0.14112 -0.53438997 -1.4712
0.14376999 -0.53457999 -1.4718
0.14642 -0.53477001 -1.4723001
0.14891 -0.53463 -1.4719
0.15139 -0.53447998 -1.4715
0.15440001 -0.53534001 -1.4739
0.15654001 -0.53451997 -1.4716001
0.15902001 -0.53437001 -1.4712
0.16150001 -0.53421003 -1.4708
0.16417 -0.53438997 -1.4713
0.16683 -0.53456998 -1.4718
0.16913 -0.53408003 -1.4704
0.17162 -0.53391999 -1.47
0.17485 -0.53509998 -1.4732
0.17733 -0.53494 -1.4728
0.18001001 -0.53511 -1.4732
0.1825 -0.53494 -1.4728
0.18479 -0.53443998 -1.4714
0.18747 -0.53460997 -1.4718
0.18995 -0.53443998 -1.4714
0.19284 -0.53492999 -1.4727
0.19532 -0.53476 -1.4723001
0.19780999 -0.53459001 -1.4718
0.20028999 -0.53441 -1.4713
0.20298 -0.53456998 -1.4717
0.20609 -0.53539002 -1.474
0.20858 -0.53521001 -1.4735
0.21107 -0.53501999 -1.473
0.21398 -0.53551 -1.4743
0.21647 -0.53531998 -1.4737999
0.21896 -0.53513002 -1.4733
0.22123 -0.53460997 -1.4719
0.22393 -0.53474998 -1.4723001
0.22708 -0.53556001 -1.4744999
0.22957 -0.53536999 -1.4739
0.23183 -0.53483999 -1.4725
0.23432 -0.53464001 -1.4719
0.23726 -0.53511 -1.4732
0.23975 -0.53491002 -1.4727
0.242 -0.53438002 -1.4712
0.24449 -0.53416997 -1.4707
0.24673 -0.53364003 -1.4692
0.24992 -0.53443003 -1.4713
0.25312001 -0.53521001 -1.4735
0.25560999 -0.53500003 -1.4729
0.2581 -0.53478998 -1.4724
0.26010001 -0.53391999 -1.47
0.26330999 -0.53469998 -1.4721
0.2658 -0.53447998 -1.4715
0.26877999 -0.53492999 -1.4727
0.27127001 -0.53470999 -1.4721
0.27451 -0.53548002 -1.4742
0.27724999 -0.53558999 -1.4744999
0.27974001 -0.53535998 -1.4739
0.28274 -0.53579998 -1.4751
0.28549001 -0.5359 -1.4754
0.28823999 -0.53600001 -1.4757
0.29021001 -0.53511 -1.4732
0.29269999 -0.53487998 -1.4726
0.29517999 -0.53465003 -1.472
0.29927 -0.53639001 -1.4766999
0.30149999 -0.53582001 -1.4752001
0.30344 -0.53492999 -1.4727
0.3062 -0.53501999 -1.473
0.30869001 -0.53477001 -1.4723001
0.31118 -0.53452998 -1.4716001
0.31421 -0.53494 -1.4728
0.31670001 -0.53469998 -1.4721
0.31975001 -0.53511 -1.4732
0.32194999 -0.53452998 -1.4716001
0.32499999 -0.53492999 -1.4727
0.32749 -0.53468001 -1.4721
0.32969001 -0.5341 -1.4705
0.33245999 -0.53416997 -1.4707
0.33668 -0.53588003 -1.4753
0.33888 -0.53529 -1.4737
0.34108001 -0.53469998 -1.4721
0.34356001 -0.53443998 -1.4714
0.34634 -0.53451002 -1.4716001
0.34913 -0.53456998 -1.4717
0.35281 -0.53560001 -1.4746
0.35591 -0.53597999 -1.4756
0.35839999 -0.53570998 -1.4749
0.36028001 -0.53478998 -1.4724
0.36245 -0.53419 -1.4707
0.36555001 -0.53456998 -1.4717
0.36835 -0.53461999 -1.4719
0.37145999 -0.53499001 -1.4729
0.37393999 -0.53470999 -1.4721
0.37706 -0.53507 -1.4730999
0.38049999 -0.53575999 -1.475
0.38203001 -0.53451002 -1.4716001
0.38516 -0.53487003 -1.4726
0.38892999 -0.53587002 -1.4753
0.39142001 -0.53557998 -1.4744999
0.39423999 -0.53561002 -1.4746
0.39673001 -0.53531998 -1.4737999
0.39954001 -0.53535002 -1.4739
0.40070999 -0.53376001 -1.4694999
0.40020001 -0.53056002 -1.4607
0.40000001 -0.52768999 -1.4528
0.40042999 -0.52547002 -1.4467
0.40118 -0.52355999 -1.4414001
0.40055999 -0.52037001 -1.4327
0.40127 -0.51846999 -1.4274
0.40231001 -0.51688999 -1.4231
-0.097043999 -0.53257 -1.4706
-0.094559997 -0.53290999 -1.4715
-0.092077002 -0.53290999 -1.4715
-0.089593001 -0.53290999 -1.4715
-0.087122999 -0.53222001 -1.4696
-0.084651999 -0.53187001 -1.4687001
-0.082174003 -0.53187001 -1.4687001
-0.079671003 -0.53254002 -1.4705
-0.077203996 -0.53218001 -1.4694999
-0.074724004 -0.53217 -1.4694999
-0.072226003 -0.53250003 -1.4704
-0.069725998 -0.53281999 -1.4713
-0.067285001 -0.53213 -1.4694
-0.064828001 -0.53176999 -1.4684
-0.062350001 -0.53175002 -1.4683
-0.059872001 -0.53173 -1.4683
-0.057339001 -0.53237998 -1.4701
-0.054799002 -0.53303999 -1.4719
-0.052315 -0.53301001 -1.4718
-0.049864002 -0.53264999 -1.4708
-0.047417 -0.53228003 -1.4698
-0.0449 -0.53258997 -1.4706
-0.042380001 -0.53289998 -1.4715
-0.039856002 -0.53320003 -1.4723001
-0.037370998 -0.53316998 -1.4723001
-0.034885999 -0.53312999 -1.4722
-0.032265998 -0.53412002 -1.4749
-0.029775999 -0.53408003 -1.4748
-0.027286001 -0.53403997 -1.4746
-0.024847999 -0.53364998 -1.4736
-0.022360001 -0.53360999 -1.4735
-0.019927001 -0.53321999 -1.4724
-0.017666001 -0.53182 -1.4685
-0.015188 -0.53176999 -1.4684
-0.012651 -0.53206003 -1.4692
-0.010172 -0.53201002 -1.4691
-0.0076301 -0.5323 -1.4698
-0.0050853002 -0.53258002 -1.4706
-0.0025372 -0.53286999 -1.4714
-0.000122 -0.53246999 -1.4703
0.0024985999 -0.53309 -1.472
0.0049116001 -0.53268999 -1.4709001
0.0074670999 -0.53297001 -1.4717
0.0099507999 -0.53290999 -1.4715
0.012358 -0.53250003 -1.4704
0.014839 -0.53244001 -1.4701999
0.01732 -0.53236997 -1.4701
0.020045999 -0.53332001 -1.4727
0.022197001 -0.53188998 -1.4687001
0.024932001 -0.53284001 -1.4713
0.027415 -0.53276998 -1.4711
0.029808 -0.53235 -1.47
0.032198001 -0.53193998 -1.4689
0.034954 -0.53288001 -1.4714
0.037719 -0.53381002 -1.474
0.040015999 -0.53306001 -1.4719
0.0425 -0.53297001 -1.4717
0.044983 -0.53289002 -1.4715
0.047568001 -0.53314 -1.4722
0.049846999 -0.53237998 -1.4701
0.052536 -0.53297001 -1.4717
0.055126 -0.53321999 -1.4724
0.057934999 -0.53413999 -1.4749
0.060095999 -0.53302997 -1.4719
0.062803 -0.53362 -1.4735
0.064949997 -0.53250998 -1.4704
0.067316003 -0.53206998 -1.4692
0.069678999 -0.53162998 -1.4680001
0.072511002 -0.53254998 -1.4705
0.075352997 -0.53346002 -1.4730999
0.077839002 -0.53336 -1.4728
0.080201 -0.53292 -1.4716001
0.082934998 -0.53349 -1.4730999
0.085294001 -0.53303999 -1.4719
0.087907001 -0.53327 -1.4725
0.090131 -0.53248 -1.4704
0.092744 -0.53271002 -1.471
0.095360003 -0.53293002 -1.4716001
0.098251 -0.53382999 -1.4741
0.1006 -0.53337997 -1.4728
0.10323 -0.53359002 -1.4734
0.10557 -0.53314 -1.4722
0.10806 -0.53302002 -1.4718
0.11025 -0.53222001 -1.4696
0.11288 -0.53242999 -1.4701999
0.11536 -0.53231001 -1.4699
0.11814 -0.53285003 -1.4714
0.12092 -0.5334 -1.4729
0.1231 -0.53259999 -1.4707
0.12543 -0.53213 -1.4694
0.12791 -0.53198999 -1.469
0.13101999 -0.53320003 -1.4724
0.13349999 -0.53307003 -1.472
0.13583 -0.53258997 -1.4707
0.13864 -0.53312999 -1.4721
0.14112 -0.53298998 -1.4718
0.1436 -0.53284001 -1.4714
0.14624999 -0.53303999 -1.4719
0.14891 -0.53323001 -1.4724
0.15157001 -0.53342003 -1.4729
0.15404999 -0.53327 -1.4725
0.15671 -0.53345001 -1.473
0.1592 -0.53329998 -1.4726
0.16133 -0.53248 -1.4703
0.16381 -0.53232002 -1.4699
0.16647001 -0.53250003 -1.4704
0.16949999 -0.53334999 -1.4728
0.17199001 -0.53319001 -1.4723001
0.17447001 -0.53302997 -1.4719
0.17714 -0.53320003 -1.4723001
0.17982 -0.53337002 -1.4728
0.18231 -0.53320998 -1.4724
0.18479 -0.53303999 -1.4719
0.18767001 -0.53354001 -1.4733
0.19075 -0.53437001 -1.4756
0.19324 -0.53420001 -1.4751
0.19532 -0.53336 -1.4728
0.19780999 -0.53318 -1.4723001
0.2007 -0.53368002 -1.4737
0.2034 -0.53382999 -1.4741
0.20609 -0.53398001 -1.4744999
0.20879 -0.53413999 -1.4749
0.21149001 -0.53429002 -1.4753
0.21398 -0.5341 -1.4748
0.21647 -0.53391999 -1.4743
0.21874 -0.5334 -1.4729
0.22101 -0.53288001 -1.4714
0.22437 -0.53402001 -1.4746
0.2273 -0.53448999 -1.4759001
0.23002 -0.53463 -1.4763
0.23273 -0.53476 -1.4766999
0.235 -0.53424001 -1.4752001
0.23749 -0.53403997 -1.4747
0.24021 -0.53416997 -1.475
0.24293 -0.53430003 -1.4754
0.24564999 -0.53443003 -1.4757
0.24744 -0.53323001 -1.4724
0.25040001 -0.53368998 -1.4737
0.25288001 -0.53347999 -1.4730999
0.25488999 -0.53261 -1.4707
0.25737 -0.53240001 -1.4701
0.26058 -0.53318 -1.4723001
0.26356 -0.53363001 -1.4735
0.2658 -0.53307998 -1.472
0.26828 -0.53286999 -1.4714
0.27127001 -0.53331 -1.4726
0.27500999 -0.53473002 -1.4766001
0.27776 -0.53483999 -1.4769
0.28025001 -0.53461999 -1.4763
0.28274 -0.53438997 -1.4756
0.28575 -0.53482997 -1.4768
0.28823999 -0.53460002 -1.4762
0.29100001 -0.53469998 -1.4765
0.29402 -0.53512001 -1.4776
0.29651001 -0.53489 -1.477
0.29846999 -0.53399998 -1.4744999
0.30069 -0.53342998 -1.473
0.30372 -0.53385001 -1.4741
0.30702001 -0.53460002 -1.4762
0.30950999 -0.53435999 -1.4755
0.31200001 -0.53411001 -1.4749
0.31477001 -0.53420001 -1.4751
0.31753999 -0.53428 -1.4753
0.32058999 -0.53468001 -1.4764
0.32251999 -0.53377998 -1.4739
0.32528999 -0.53386003 -1.4742
0.32776999 -0.53360999 -1.4735
0.33140999 -0.53465998 -1.4764
0.33419001 -0.53473002 -1.4766001
0.33610001 -0.53381997 -1.4741
0.33859 -0.53355998 -1.4733
0.34136999 -0.53363001 -1.4735
0.34415001 -0.53368998 -1.4737
0.34604001 -0.53277999 -1.4712
0.34852999 -0.53252 -1.4704
0.35161 -0.53289998 -1.4715
0.3547 -0.53328001 -1.4726
0.35749 -0.53333998 -1.4727
0.36089 -0.53403997 -1.4747
0.36399001 -0.53441 -1.4757
0.36647999 -0.53413999 -1.4749
0.36989999 -0.53482997 -1.4768
0.37208 -0.53422999 -1.4752001
0.37393999 -0.53331 -1.4726
0.37674999 -0.53334999 -1.4727
0.37922999 -0.53307003 -1.472
0.38235 -0.53342998 -1.473
0.38516 -0.53346002 -1.4730999
0.38828999 -0.53381997 -1.4741
0.39078 -0.53353 -1.4733
0.39456001 -0.53452998 -1.476
0.39771 -0.53487998 -1.477
0.40053001 -0.53491002 -1.4771
0.40268999 -0.53429002 -1.4753
0.40186 -0.53078002 -1.4657
0.40000001 -0.52631003 -1.4533
0.40110001 -0.52473003 -1.449
0.40152001 -0.52250999 -1.4428
0.40158001 -0.51997 -1.4358
0.40263 -0.51839 -1.4315
0.40299001 -0.51617998 -1.4253
0.40401 -0.51459998 -1.421
-0.097043999 -0.53175002 -1.473
-0.094562002 -0.53106999 -1.4711
-0.092079997 -0.53106999 -1.4711
-0.089593001 -0.53140002 -1.4721
-0.087109998 -0.53140002 -1.4721
-0.084642999 -0.53070998 -1.4701999
-0.082174003 -0.53037 -1.4692
-0.079708003 -0.53002 -1.4682
-0.077230997 -0.53000998 -1.4682
-0.074724004 -0.53066999 -1.47
-0.072244003 -0.53065997 -1.47
-0.069725998 -0.53131998 -1.4718
-0.067263998 -0.53096002 -1.4709001
-0.064782001 -0.53095001 -1.4708
-0.062300999 -0.53092998 -1.4708
-0.059794001 -0.53123999 -1.4716001
-0.057227999 -0.53223997 -1.4744
-0.054710001 -0.53255999 -1.4753
-0.052189 -0.53286999 -1.4761
-0.049697999 -0.53284001 -1.4761
-0.047277 -0.53213 -1.4741
-0.04479 -0.53210002 -1.474
-0.042265002 -0.53241003 -1.4749
-0.039776001 -0.53237998 -1.4748
-0.037370998 -0.53166997 -1.4728
-0.034885999 -0.53162998 -1.4727
-0.032356001 -0.53193003 -1.4735
-0.029823 -0.53223002 -1.4744
-0.027286001 -0.53253001 -1.4752001
-0.024797 -0.53249002 -1.4751
-0.022307999 -0.53244001 -1.475
-0.019873001 -0.53206003 -1.4739
-0.017554 -0.53100002 -1.4709001
-0.014958 -0.53162998 -1.4727
-0.012532 -0.53123999 -1.4716001
-0.01005 -0.53118998 -1.4715
-0.0075046001 -0.53147 -1.4723001
-0.0050853002 -0.53108001 -1.4712
-0.0026034999 -0.53103 -1.471
-0.00025796 -0.53029001 -1.469
0.0024289 -0.53125 -1.4716001
0.004983 -0.53153002 -1.4724
0.0075403 -0.53180999 -1.4732
0.010251 -0.53276002 -1.4758
0.012511 -0.53167999 -1.4728
0.015153 -0.53228998 -1.4744999
0.017720999 -0.53255999 -1.4753
0.020374 -0.53316998 -1.477
0.022699 -0.53241998 -1.4749
0.025017001 -0.53167999 -1.4728
0.027502 -0.5316 -1.4726
0.030075001 -0.53187001 -1.4734
0.032742001 -0.53246999 -1.475
0.035231002 -0.53239 -1.4748
0.037719 -0.53231001 -1.4746
0.040399 -0.53289998 -1.4762
0.042890001 -0.53281999 -1.476
0.045480002 -0.53307998 -1.4766999
0.047770001 -0.53232002 -1.4746
0.050361 -0.53257 -1.4753
0.052641001 -0.53179997 -1.4732
0.055339001 -0.53239 -1.4748
0.057827 -0.5323 -1.4746
0.060315002 -0.53220999 -1.4743
0.063137002 -0.53311998 -1.4768
0.065516002 -0.53268999 -1.4756
0.068121001 -0.53293002 -1.4763
0.070378996 -0.53215998 -1.4742
0.072866 -0.53206003 -1.4739
0.075352997 -0.53196001 -1.4736
0.077960998 -0.53219002 -1.4743
0.080695003 -0.53276002 -1.4758
0.083185002 -0.53264999 -1.4755
0.085547999 -0.53220999 -1.4743
0.088035002 -0.53210002 -1.474
0.090260997 -0.53131998 -1.4718
0.092744 -0.53121001 -1.4715
0.095360003 -0.53143001 -1.4721
0.098251 -0.53232002 -1.4746
0.10074 -0.53220999 -1.4743
0.10323 -0.53209001 -1.474
0.10585 -0.53231001 -1.4746
0.10848 -0.53252 -1.4752001
0.11068 -0.53173 -1.473
