# .PCD v0.7 - Point Cloud Data file format
VERSION 0.7
FIELDS x y z
SIZE 4 4 4
TYPE F F F
COUNT 1 1 1
WIDTH 1615
HEIGHT 1
VIEWPOINT 0 0 0 1 0 0 0
POINTS 1615
DATA ascii
0.42091 -0.39004001 -1.7315
0.42467001 -0.39047 -1.7334
0.42691001 -0.38984999 -1.7307
0.43037 -0.39006999 -1.7316
0.43384001 -0.39028001 -1.7326
0.43638 -0.38986999 -1.7308
0.43954 -0.38986999 -1.7308
0.44332999 -0.39028999 -1.7326
0.4465 -0.39028999 -1.7326
0.44966999 -0.39028999 -1.7326
0.45284 -0.39028999 -1.7326
0.45569 -0.39008 -1.7316999
0.45853999 -0.38986999 -1.7307
0.46138 -0.38964999 -1.7298
0.46423 -0.38944 -1.7288001
0.46805999 -0.38984999 -1.7306
0.47123 -0.38984001 -1.7306
0.47441 -0.38982001 -1.7306
0.47725999 -0.38960001 -1.7296
0.48109999 -0.39001 -1.7314
0.48528999 -0.39061001 -1.734
0.48815 -0.39039001 -1.7331001
0.491 -0.39015999 -1.7321
0.49384999 -0.38993999 -1.7311
0.49737999 -0.39012 -1.7319
0.50057 -0.3901 -1.7318
0.50342 -0.38986999 -1.7308
0.50661999 -0.38984999 -1.7307
0.50946999 -0.38960999 -1.7296
0.51266003 -0.38959 -1.7295001
0.51551002 -0.38935 -1.7285
0.52012002 -0.39014 -1.732
0.52297002 -0.38991001 -1.7309
0.52546 -0.38946 -1.729
0.52866 -0.38942999 -1.7288001
0.53365999 -0.39041999 -1.7332
0.53652 -0.39017999 -1.7321
0.53937 -0.38993001 -1.7309999
0.54220998 -0.38969001 -1.73
0.54689002 -0.39046001 -1.7334
0.55122 -0.39103001 -1.7359
0.55444002 -0.39098999 -1.7357
0.55693001 -0.39054 -1.7337
0.55978 -0.39028001 -1.7326
0.56076002 -0.38901001 -1.727
0.53877002 -0.37531999 -1.6662
0.64090002 -0.3838 -1.7038
0.65082997 -0.38690999 -1.7176
0.65029001 -0.38503 -1.7093
0.63872999 -0.37797001 -1.6779
0.63682002 -0.37549999 -1.6670001
0.63954997 -0.37522 -1.6657
0.64227998 -0.37492999 -1.6644
0.64458001 -0.37445 -1.6623
0.64774001 -0.37436 -1.6619
0.65046 -0.37408 -1.6607
0.66185999 -0.37775001 -1.677
0.66635001 -0.37825 -1.6792001
0.66079998 -0.37419999 -1.6612
0.64731002 -0.36660001 -1.6275001
0.64952999 -0.36612001 -1.6253
0.65086001 -0.36524001 -1.6214
0.65174001 -0.36417001 -1.6166
0.65394002 -0.36368001 -1.6145
0.65614003 -0.36320001 -1.6123
0.65832001 -0.36271 -1.6102
0.66051 -0.36221999 -1.608
0.66539001 -0.36291 -1.6111
0.66983002 -0.36340001 -1.6133
0.67291999 -0.3633 -1.6128
0.67601001 -0.36320001 -1.6124001
0.68138999 -0.36408001 -1.6163
0.68633002 -0.36476001 -1.6193
0.69081998 -0.36524001 -1.6214
0.69439 -0.36532 -1.6217999
0.69751 -0.36522001 -1.6213
0.70201999 -0.36568999 -1.6234
0.70840001 -0.36693999 -1.6289001
0.71293998 -0.36739999 -1.631
0.71796 -0.36805999 -1.6339999
0.72109997 -0.36794001 -1.6334
0.72566003 -0.36840001 -1.6355
0.73166001 -0.36943999 -1.6401
0.73909998 -0.37106001 -1.6472
0.75038999 -0.37421 -1.6612
0.41580001 -0.38912001 -1.7355
0.41835999 -0.38872001 -1.7337
0.42212 -0.38914001 -1.7356
0.42467001 -0.38874 -1.7338001
0.42813 -0.38894999 -1.7348
0.43130001 -0.38896 -1.7348
0.43446001 -0.38896999 -1.7348
0.43731001 -0.38876 -1.7339
0.44016999 -0.38856 -1.733
0.44427001 -0.38918 -1.7358
0.44775999 -0.38938999 -1.7367001
0.45093 -0.38938999 -1.7367001
0.45443001 -0.38960001 -1.7376
0.45761001 -0.38959 -1.7376
0.46079001 -0.38959 -1.7376
0.463 -0.38896 -1.7348
0.46618 -0.38894999 -1.7348
0.46969 -0.38914999 -1.7356
0.47222 -0.38872999 -1.7338001
0.47507 -0.38850999 -1.7328
0.47725999 -0.38788 -1.73
0.48109999 -0.38826999 -1.7316999
0.48429 -0.38826001 -1.7316999
0.48881999 -0.38907 -1.7352999
0.49202001 -0.38905001 -1.7352
0.49520999 -0.38903001 -1.7351
0.49772 -0.38859999 -1.7332
0.50092 -0.38857001 -1.7331001
0.50376999 -0.38835001 -1.7321
0.50695997 -0.38832 -1.732
0.51016003 -0.38828999 -1.7318
0.51406002 -0.38868001 -1.7335
0.51691002 -0.38844001 -1.7325
0.52012002 -0.38841 -1.7323999
0.52332002 -0.38837999 -1.7322
0.52723998 -0.38876 -1.7339
0.53259999 -0.38995001 -1.7392
0.53582001 -0.38991001 -1.739
0.53868997 -0.38967001 -1.738
0.54118001 -0.38922 -1.7359999
0.54367 -0.38877001 -1.734
0.54653001 -0.38852999 -1.7329
0.55048001 -0.38889 -1.7345001
0.55480999 -0.38946 -1.737
0.55729997 -0.38901001 -1.735
0.56053001 -0.38896 -1.7348
0.56037998 -0.38708001 -1.7264
0.42817 -0.31406 -1.4007
0.48949999 -0.31136999 -1.3887
0.65219003 -0.38747001 -1.7280999
0.65628999 -0.38778001 -1.7295001
0.65829003 -0.38709 -1.7265
0.65478998 -0.38383001 -1.7119
0.64191002 -0.37621 -1.6779
0.64039999 -0.37395 -1.6677999
0.64398998 -0.37406 -1.6684
0.64673001 -0.37378001 -1.6671
0.65031999 -0.37389001 -1.6676
0.64945 -0.36741999 -1.6388
0.64599001 -0.36438999 -1.6252
0.64644998 -0.36311999 -1.6196001
0.64954001 -0.36302999 -1.6192
0.65130001 -0.36234999 -1.6161
0.65394002 -0.36206999 -1.6149
0.65746999 -0.36217001 -1.6153001
0.66191 -0.36267 -1.6174999
0.66680002 -0.36335 -1.6206
0.66854 -0.36267 -1.6174999
0.67208999 -0.36276999 -1.618
0.67518997 -0.36267 -1.6174999
0.67874998 -0.36276001 -1.618
0.68276 -0.36305001 -1.6192
0.68724 -0.36353001 -1.6214
0.69128001 -0.36381 -1.6226
0.69485003 -0.36390001 -1.623
0.69843 -0.36398 -1.6234
0.70433998 -0.36502999 -1.6281
0.70886999 -0.3655 -1.6302
0.71388 -0.36616001 -1.6331
0.72030002 -0.36739999 -1.6386
0.72346002 -0.36728001 -1.6381
0.72755003 -0.36754 -1.6393
0.73356003 -0.36857 -1.6439
0.73909998 -0.36941001 -1.6476001
0.75038999 -0.37255001 -1.6616
0.41639999 -0.38780001 -1.7378
0.41926 -0.38760999 -1.7369
0.42242 -0.38762 -1.7369
0.42680001 -0.38846001 -1.7407
0.42936 -0.38804999 -1.7388999
0.43252999 -0.38806 -1.7388999
0.43539 -0.38784999 -1.738
0.43825001 -0.38765001 -1.7371
0.44204 -0.38806999 -1.739
0.44584 -0.38848001 -1.7408
0.44870999 -0.38828 -1.7399
0.45157 -0.38806999 -1.739
0.45411 -0.38765001 -1.7371
0.45728999 -0.38765001 -1.7371
0.46046999 -0.38764 -1.7371
0.46397001 -0.38784 -1.738
0.46682999 -0.38762999 -1.737
0.47002 -0.38762 -1.737
0.47189 -0.38679001 -1.7332
0.47474 -0.38657001 -1.7323
0.47725999 -0.38615 -1.7304
0.48144001 -0.38675001 -1.7331001
0.48495999 -0.38694 -1.7339
0.48815 -0.38692001 -1.7338001
0.49269 -0.38771999 -1.7374001
0.49588999 -0.38769999 -1.7373
0.49908999 -0.38767999 -1.7372
0.50229001 -0.38766 -1.7371
0.50480002 -0.38723001 -1.7352
0.50765997 -0.38699999 -1.7342
0.51086003 -0.38697001 -1.7341
0.51406002 -0.38694 -1.7339
0.51867002 -0.38773 -1.7375
0.52082002 -0.38709 -1.7345999
0.52509999 -0.38767001 -1.7372
0.52938002 -0.38824001 -1.7398
0.53332001 -0.38861999 -1.7414
0.53618002 -0.38837999 -1.7403001
0.53759998 -0.38732001 -1.7356
0.54118001 -0.38749 -1.7364
0.54404002 -0.38723999 -1.7352999
0.54799002 -0.38760999 -1.7369
0.55084997 -0.38736001 -1.7358
0.55444002 -0.38751999 -1.7365
0.55804002 -0.38767999 -1.7372
0.56089997 -0.38743001 -1.7361
0.56338 -0.38697001 -1.7341
0.48346999 -0.34233001 -1.534
0.47035 -0.30087 -1.3482
0.64131999 -0.38058999 -1.7055
0.65711999 -0.38644001 -1.7316999
0.66210997 -0.37147 -1.6646
0.64906001 -0.36412999 -1.6317
0.64688998 -0.3617 -1.6208
0.64998001 -0.36161 -1.6204
0.65174001 -0.36093 -1.6174001
0.64994001 -0.35870001 -1.6073999
0.65434998 -0.35918999 -1.6095999
0.66504002 -0.36241001 -1.624
0.66768998 -0.36212 -1.6227
0.66854 -0.36105001 -1.6179
0.67119002 -0.36076 -1.6166
0.67338002 -0.36026999 -1.6144
0.67874998 -0.36114001 -1.6183
0.68230999 -0.36124 -1.6187
0.68678999 -0.36171001 -1.6209
0.69128001 -0.36219001 -1.623
0.69485003 -0.36228001 -1.6234
0.69936001 -0.36274999 -1.6255
0.70481002 -0.36359999 -1.6293
0.70886999 -0.36386999 -1.6305
0.71293998 -0.36414 -1.6318001
0.71842998 -0.36499 -1.6355
0.72250998 -0.36524999 -1.6367
0.72755003 -0.36590001 -1.6396
0.73356003 -0.36693001 -1.6442
0.73767 -0.36719 -1.6454
0.74274999 -0.36783001 -1.6483001
0.74593002 -0.36770001 -1.6477
0.41639999 -0.38606 -1.7381999
0.42045999 -0.3867 -1.7410001
0.42271999 -0.38609001 -1.7383
0.4271 -0.38692001 -1.742
0.43026999 -0.38692999 -1.7421
0.43314001 -0.38672999 -1.7412
0.43630999 -0.38672999 -1.7412
0.44042 -0.38736001 -1.744
0.44329 -0.38714999 -1.7431
0.44584 -0.38674 -1.7412
0.44808 -0.38611999 -1.7384
0.45093 -0.38591999 -1.7375
0.45443001 -0.38611999 -1.7384
0.45761001 -0.38611999 -1.7384
0.46144 -0.38652 -1.7402
0.46495 -0.38672 -1.7411
0.46781 -0.38651001 -1.7402
0.47067001 -0.38629001 -1.7392
0.47319999 -0.38587001 -1.7373
0.47507 -0.38503999 -1.7336
0.48025 -0.38626 -1.739
0.48311001 -0.38604 -1.738
0.48596001 -0.38582 -1.7371
0.48982999 -0.38620999 -1.7388
0.49371001 -0.38659999 -1.7406
0.49691001 -0.38657999 -1.7405
0.49943 -0.38615 -1.7385
0.50331998 -0.38653001 -1.7403001
0.50515002 -0.38569999 -1.7365
0.50835001 -0.38567001 -1.7364
0.51121002 -0.38543999 -1.7354
0.51581001 -0.38622999 -1.7388999
0.51902002 -0.38620001 -1.7388
0.52152997 -0.38576001 -1.7368
0.52438998 -0.38552999 -1.7357
0.52794999 -0.38569999 -1.7365
0.53259999 -0.38646999 -1.74
0.53618002 -0.38664001 -1.7407
0.53904998 -0.38640001 -1.7397
0.54082 -0.38554999 -1.7358
0.54367 -0.38530999 -1.7347
0.54799002 -0.38587001 -1.7373
0.55194998 -0.38622999 -1.7388999
0.55518001 -0.38619 -1.7387
0.55840999 -0.38613999 -1.7385
0.56127 -0.38589001 -1.7374001
0.56375998 -0.38543999 -1.7354
0.56435001 -0.38398999 -1.7288001
0.43608999 -0.31406999 -1.414
0.65671003 -0.38451001 -1.7312
0.64997 -0.36144 -1.6273
0.64910001 -0.35960001 -1.619
0.65041 -0.35872999 -1.6151
0.65350002 -0.35863999 -1.6147
0.66014999 -0.36011001 -1.6213
0.66637999 -0.36137 -1.627
0.67039001 -0.36166 -1.6283
0.67304999 -0.36137 -1.627
0.67751998 -0.36184999 -1.6291
0.67610002 -0.35982001 -1.62
0.68057001 -0.3603 -1.6222
0.68322003 -0.36000001 -1.6208
0.68633002 -0.3599 -1.6204
0.69036001 -0.36017999 -1.6216
0.69485003 -0.36065 -1.6237
0.69796997 -0.36054 -1.6233
0.70248002 -0.36100999 -1.6253999
0.70700002 -0.36148 -1.6275001
0.71060002 -0.36155 -1.6278
0.71325999 -0.36125001 -1.6264
0.71921998 -0.36228001 -1.6311001
0.72329998 -0.36254001 -1.6323
0.72929001 -0.36357 -1.6368999
0.73576999 -0.36478001 -1.6423
0.73988998 -0.36504 -1.6435
0.74641001 -0.36623999 -1.6489
0.75054997 -0.36649001 -1.65
0.75613999 -0.36730999 -1.6537
0.41729999 -0.38494 -1.7413
0.41986001 -0.38453999 -1.7395
0.42513999 -0.38600001 -1.7460999
0.42771 -0.38558999 -1.7443
0.43088999 -0.3856 -1.7443
0.43375 -0.3854 -1.7434
0.43599999 -0.38479 -1.7406
0.44011 -0.38541001 -1.7434
0.44297999 -0.38521001 -1.7424999
0.44584 -0.38499999 -1.7416
0.44902 -0.38499999 -1.7416
0.45188999 -0.38479999 -1.7407
0.45506999 -0.38479 -1.7406
0.45793 -0.38457999 -1.7397
0.46079001 -0.38437 -1.7388
0.46430001 -0.38457 -1.7397
0.46748 -0.38455999 -1.7395999
0.47099999 -0.38475999 -1.7405
0.47419 -0.38475001 -1.7404
0.47837999 -0.38534999 -1.7431999
0.48157001 -0.38532999 -1.7431
0.48477 -0.38532001 -1.743
0.48763999 -0.38510001 -1.742
0.49050999 -0.38488001 -1.7410001
0.49405 -0.38506001 -1.7419
0.49724999 -0.38503999 -1.7418
0.50011998 -0.38482001 -1.7408
0.50435001 -0.3854 -1.7434
0.50652999 -0.38477001 -1.7406
0.50870001 -0.38414001 -1.7377
0.51156002 -0.38391 -1.7367001
0.51686001 -0.38508999 -1.742
0.52043003 -0.38527 -1.7428
0.52329999 -0.38503 -1.7417001
0.52616 -0.38479999 -1.7407
0.52938002 -0.38477001 -1.7405
0.53368002 -0.38534001 -1.7431
0.53689998 -0.38530001 -1.7429
0.53977001 -0.38506001 -1.7419
0.54263997 -0.38482001 -1.7408
0.54513001 -0.38438001 -1.7388
0.54945999 -0.38494 -1.7413
0.55269003 -0.38488999 -1.7411
0.55628997 -0.38505 -1.7418
0.56101 -0.38580999 -1.7452
0.56164998 -0.38435999 -1.7387
0.56338 -0.38350999 -1.7348
0.56247002 -0.38126001 -1.7247
0.61207002 -0.36346 -1.6441
0.65789002 -0.3633 -1.6434
0.64998001 -0.35837001 -1.6210999
0.65041 -0.35712001 -1.6155
0.65928 -0.35953999 -1.6264
0.66640002 -0.36118999 -1.6339
0.66907001 -0.36090001 -1.6325999
0.67264003 -0.361 -1.633
0.67711002 -0.36148 -1.6352
0.67978001 -0.36118999 -1.6339
0.67791998 -0.35896999 -1.6238
0.68010998 -0.35848999 -1.6216
0.68276 -0.35819 -1.6203001
0.68586999 -0.35809001 -1.6199
0.68943 -0.35817999 -1.6203001
0.69392997 -0.35865 -1.6224
0.69889998 -0.35929999 -1.6253999
0.70341003 -0.35977 -1.6275001
0.70653999 -0.35966 -1.6269
0.71247 -0.36069 -1.6316
0.71608001 -0.36076999 -1.632
0.72157001 -0.36160001 -1.6357
0.72566003 -0.36186001 -1.6368999
0.73071003 -0.36250001 -1.6398
0.73624998 -0.36333001 -1.6436
0.74180001 -0.36414999 -1.6473
0.74783999 -0.36515999 -1.6519001
0.75151002 -0.36522001 -1.6521
0.75613999 -0.36566001 -1.6540999
0.41681001 -0.38501999 -1.7501
0.41969001 -0.38483 -1.7492
0.42076001 -0.38339999 -1.7427
0.42454001 -0.38382 -1.7446001
0.42771 -0.38383001 -1.7447
0.43057999 -0.38363001 -1.7438
0.43314001 -0.38323 -1.7419
0.43693 -0.38365 -1.7438
0.43979999 -0.38343999 -1.7429
0.44266 -0.38324001 -1.742
0.44615999 -0.38345 -1.7429
0.44964999 -0.38365 -1.7438
0.45252001 -0.38345 -1.7429
0.45666 -0.38405001 -1.7457
0.45953 -0.38385001 -1.7447
0.46239999 -0.38363999 -1.7438
0.46527001 -0.38343 -1.7428
0.46878999 -0.38361999 -1.7437
0.47198001 -0.38361001 -1.7437
0.47518 -0.3836 -1.7436
0.47837999 -0.38359001 -1.7435
0.48124 -0.38337001 -1.7426
0.48477 -0.38356 -1.7434
0.48898 -0.38415 -1.7460999
0.49184999 -0.38393 -1.7451
0.49439001 -0.38350999 -1.7431999
0.49759001 -0.38349 -1.7431
0.50114 -0.38367 -1.7438999
0.50503999 -0.38405001 -1.7456
0.50826001 -0.38402 -1.7455
0.51077998 -0.38359001 -1.7436
0.51365 -0.38337001 -1.7424999
0.51686001 -0.38334 -1.7424001
0.52043003 -0.38350999 -1.7431999
0.52364999 -0.38348001 -1.743
0.52652001 -0.38324001 -1.742
0.52938002 -0.38301 -1.7409
0.53547001 -0.38457999 -1.7481
0.53798002 -0.38414001 -1.7460999
0.54086 -0.38389999 -1.745
0.54299998 -0.38326001 -1.7421
0.54623002 -0.38321999 -1.7419
0.54982001 -0.38338 -1.7426
0.55306 -0.38334 -1.7424001
0.55628997 -0.38328999 -1.7422
0.55915999 -0.38304999 -1.7411
0.56202 -0.38280001 -1.74
0.56450999 -0.38235 -1.7379
0.56435001 -0.38051 -1.7296
0.42324999 -0.30447 -1.3839
0.54773003 -0.33173999 -1.5079
0.65082997 -0.37830999 -1.7194999
0.65833002 -0.36184001 -1.6447001
0.65616 -0.35942999 -1.6337
0.65262997 -0.35644999 -1.6202
0.65972 -0.35809001 -1.6277
0.66327 -0.35819 -1.6281
0.66772997 -0.35868001 -1.6303
0.67443001 -0.36012 -1.6368999
0.67800999 -0.36021 -1.6373
0.68114001 -0.36011001 -1.6368001
0.68155003 -0.35885999 -1.6312
0.68558002 -0.35914001 -1.6324
0.68687999 -0.35828 -1.6285
0.68908 -0.35778999 -1.6263
0.69173998 -0.35749999 -1.6249
0.69577998 -0.35777 -1.6262
0.69936001 -0.35784999 -1.6266
0.70295 -0.35793999 -1.6269
0.70700002 -0.35821 -1.6282001
0.71153998 -0.35866001 -1.6303
0.71701998 -0.35949999 -1.6339999
0.72157001 -0.35995001 -1.6361001
0.72566003 -0.36021 -1.6373
0.73166001 -0.36122999 -1.6418999
0.73672003 -0.36186001 -1.6447999
0.74180001 -0.36249 -1.6477
0.74593002 -0.36274001 -1.6488
0.75151002 -0.36355999 -1.6525
0.75757998 -0.36456001 -1.6569999
0.76077998 -0.36442 -1.6564
0.41879001 -0.38244 -1.7467999
0.42045999 -0.38143 -1.7422
0.42363 -0.38144001 -1.7422
0.42680001 -0.38145 -1.7423
0.43057999 -0.38187 -1.7441
0.43406001 -0.38207999 -1.7451
0.43693 -0.38187999 -1.7442
0.44042 -0.38209 -1.7451
0.44422999 -0.38249001 -1.747
0.44773 -0.3827 -1.7479
0.4506 -0.38249001 -1.747
0.45379001 -0.38249001 -1.747
0.45730001 -0.38269001 -1.7479
0.45985001 -0.38227999 -1.7460001
0.46272999 -0.38207 -1.7451
0.46592 -0.38207 -1.745
0.46911001 -0.38205999 -1.745
0.47198001 -0.38185 -1.744
0.47419 -0.38123 -1.7412
0.47804001 -0.38161999 -1.743
0.48124 -0.38161001 -1.743
0.48578 -0.38240001 -1.7466
0.48932001 -0.38258001 -1.7474
0.49219 -0.38236001 -1.7464
0.49506 -0.38214001 -1.7454
0.49792999 -0.38192001 -1.7444
0.50217003 -0.38249999 -1.747
0.50642002 -0.38308001 -1.7497
0.50928998 -0.38286 -1.7487
0.51217002 -0.38262999 -1.7476
0.51503998 -0.38240001 -1.7466
0.51861 -0.38257 -1.7474
0.52183998 -0.38253999 -1.7472
0.52577001 -0.38291001 -1.7489001
0.52899998 -0.38288 -1.7488
0.53188002 -0.38264 -1.7477
0.53547001 -0.38281 -1.7484
0.53833997 -0.38257 -1.7474
0.54158002 -0.38253 -1.7472
0.54444999 -0.38229001 -1.7460999
0.54768997 -0.38225001 -1.7459
0.55056 -0.38201001 -1.7448
0.55378997 -0.38196999 -1.7446001
0.55777001 -0.38231999 -1.7462
0.56027001 -0.38187999 -1.7442
0.56388003 -0.38203001 -1.7449
0.56674999 -0.38178 -1.7438
0.56887001 -0.38113999 -1.7408
0.56945997 -0.37970001 -1.7342
0.58876002 -0.34783 -1.5887001
0.67344999 -0.36381999 -1.6617
0.66328001 -0.35798001 -1.635
0.66684002 -0.35808 -1.6355
0.67220002 -0.35894001 -1.6394
0.67219001 -0.35749999 -1.6329
0.67486 -0.35721999 -1.6316
0.67978001 -0.35788 -1.6346
0.68291003 -0.35778001 -1.6341
0.68649 -0.35787001 -1.6345
0.68915999 -0.35758001 -1.6332
0.69045001 -0.35670999 -1.6293
0.69173998 -0.35585001 -1.6253
0.69577998 -0.35611999 -1.6266
0.69843 -0.35583001 -1.6252
0.70295 -0.35629001 -1.6273
0.70607001 -0.35618001 -1.6267999
0.70920002 -0.35607001 -1.6263
0.71513999 -0.35709 -1.631
0.71969002 -0.35754001 -1.633
0.72472 -0.35817999 -1.6359
0.72975999 -0.35881001 -1.6388
0.73387003 -0.35905999 -1.64
0.73798001 -0.35932001 -1.6411999
0.74400997 -0.36032 -1.6457
0.74766999 -0.36037999 -1.646
0.75277001 -0.361 -1.6488
0.75932997 -0.36217999 -1.6542
0.76591003 -0.36335999 -1.6596
0.77155 -0.36416 -1.6633
0.41879001 -0.38071999 -1.7471
0.42227 -0.38093999 -1.7481
0.42513999 -0.38073999 -1.7472
0.4271 -0.37994 -1.7436
0.43119001 -0.38055 -1.7464
0.43529001 -0.38117 -1.7492
0.43909001 -0.38158 -1.7510999
0.44135001 -0.38097 -1.7483
0.44391 -0.38056999 -1.7465
0.44710001 -0.38056999 -1.7465
0.4506 -0.38077 -1.7474
0.45473999 -0.38137999 -1.7502
0.45761999 -0.38117 -1.7492
0.46081999 -0.38117 -1.7492
0.46434 -0.38135999 -1.7501
0.46689001 -0.38095 -1.7482001
0.47009 -0.38093999 -1.7482001
0.47264001 -0.38053 -1.7463
0.47551 -0.38032001 -1.7453001
0.48036 -0.38130999 -1.7498
0.48256999 -0.38069001 -1.747
0.48611 -0.38088 -1.7479
0.48898 -0.38066 -1.7469
0.49219 -0.38064 -1.7467999
0.49506 -0.38042 -1.7458
0.49895 -0.38080001 -1.7474999
0.50318998 -0.38137999 -1.7502
0.50709999 -0.38176 -1.7519
0.51033002 -0.38172999 -1.7517999
0.51321 -0.38150999 -1.7508
0.51678002 -0.38168001 -1.7515
0.51966 -0.38145 -1.7505
0.52324998 -0.38161999 -1.7513
0.52648002 -0.38159001 -1.7510999
0.52970999 -0.38155001 -1.751
0.53223997 -0.38112 -1.749
0.53583002 -0.38128 -1.7497
0.53869998 -0.38104999 -1.7486
0.54158002 -0.38080999 -1.7476
0.54481 -0.38077 -1.7474
0.54842001 -0.38093001 -1.7481
0.55238998 -0.38128 -1.7497
0.55673999 -0.38183001 -1.7523
0.55925 -0.38139001 -1.7502
0.56101 -0.38056001 -1.7464
0.565 -0.3809 -1.748
0.56862998 -0.38104999 -1.7487
0.57037002 -0.38021001 -1.7448
0.51014 -0.34704 -1.5926
0.65209001 -0.37544999 -1.723
0.69072998 -0.36963001 -1.6962
0.67039001 -0.35942 -1.6494
0.67085999 -0.35817999 -1.6437
0.67712998 -0.35942 -1.6494
0.67623001 -0.35760999 -1.6411
0.67980999 -0.35769999 -1.6415
0.68023998 -0.35646001 -1.6358
0.68518001 -0.35712001 -1.6388
0.68831003 -0.35701999 -1.6384
0.69053 -0.35653999 -1.6362
0.69321001 -0.35624 -1.6348
0.69173998 -0.35425001 -1.6257
0.69439 -0.35394999 -1.6243
0.69751 -0.35385001 -1.6238
0.70201999 -0.35431001 -1.6259
0.70467001 -0.35400999 -1.6246001
0.71012998 -0.35484001 -1.6284
0.71513999 -0.35547999 -1.6313
0.72109997 -0.35648999 -1.636
0.72518998 -0.35675001 -1.6371
0.72881001 -0.35681999 -1.6375
0.73387003 -0.35745001 -1.6403
0.73940998 -0.35826001 -1.6441
0.74400997 -0.35870001 -1.6461
0.74910998 -0.35932001 -1.6489
0.75421 -0.35993999 -1.6518
0.75932997 -0.36054999 -1.6546
0.76446003 -0.36116001 -1.6574
0.77155 -0.36252001 -1.6636
0.41622001 -0.37941 -1.7493
0.41969001 -0.37963 -1.7503
0.42287001 -0.37964001 -1.7503999
0.42605001 -0.37965 -1.7503999
0.42984 -0.38005999 -1.7523
0.43302 -0.38007 -1.7523
0.43560001 -0.37966999 -1.7505
0.44001999 -0.38047999 -1.7542
0.4429 -0.38027999 -1.7533
0.44578999 -0.38008001 -1.7524
0.44710001 -0.37887001 -1.7467999
0.45091999 -0.37926999 -1.7487
0.45473999 -0.37966999 -1.7505
0.45794001 -0.37966999 -1.7505
0.46114001 -0.37966001 -1.7505
0.46498001 -0.38005999 -1.7523
0.46851 -0.38025001 -1.7532001
0.47106999 -0.37983999 -1.7513
0.47362 -0.37943 -1.7494
0.47714999 -0.37961999 -1.7503
0.48069 -0.37981001 -1.7510999
0.48289999 -0.37919 -1.7483
0.48677999 -0.37957999 -1.7501
0.48898 -0.37896001 -1.7472
0.4932 -0.37954 -1.7499
0.49608001 -0.37932 -1.7489001
0.50032002 -0.37990001 -1.7516
0.50388002 -0.38008001 -1.7524
0.50709999 -0.38005 -1.7523
0.51033002 -0.38003001 -1.7522
0.51286 -0.37959999 -1.7502
0.51608998 -0.37957999 -1.7501
0.52000999 -0.37994 -1.7517999
0.52394998 -0.38031 -1.7535
0.52648002 -0.37988001 -1.7515
0.52970999 -0.37985 -1.7513
0.53294998 -0.37981001 -1.7512
0.53653997 -0.37998 -1.7519
0.54013997 -0.38014001 -1.7527
0.54374999 -0.38029999 -1.7534
0.54627001 -0.37986001 -1.7514
0.54914999 -0.37961999 -1.7503
0.55238998 -0.37957999 -1.7501
0.55599999 -0.37972999 -1.7508
0.55887997 -0.37948999 -1.7497
0.5625 -0.37964001 -1.7503999
0.56724 -0.38038 -1.7538
0.57011998 -0.38012999 -1.7527
0.57225001 -0.37948999 -1.7497
0.53394997 -0.35784999 -1.6499
0.61475998 -0.35664999 -1.6444
0.67262 -0.35876 -1.6540999
0.67666 -0.35905001 -1.6554
0.67264998 -0.35591999 -1.641
0.67174 -0.35411999 -1.6327
0.67531002 -0.35420999 -1.6331
0.6825 -0.35580999 -1.6404999
0.68699002 -0.35628 -1.6427
0.69104999 -0.35655999 -1.6439
0.69282001 -0.35589001 -1.6409
0.69733 -0.35635 -1.643
0.69588 -0.35436001 -1.6338
0.69531 -0.35275 -1.6264
0.69889998 -0.35282999 -1.6267999
0.70248002 -0.35291001 -1.6271
0.70700002 -0.35337001 -1.6292
0.71107 -0.35363001 -1.6303999
0.71420002 -0.35352001 -1.6299
0.72109997 -0.3549 -1.6363
0.72472 -0.35497001 -1.6366
0.72834003 -0.35504001 -1.6368999
0.73482001 -0.35622001 -1.6424
0.73988998 -0.35685 -1.6453
0.74353999 -0.35690999 -1.6456
0.74862999 -0.35753 -1.6483999
0.75325 -0.35795999 -1.6504
0.75836003 -0.35857001 -1.6532
0.76300001 -0.359 -1.6552
0.76814002 -0.35960001 -1.658
0.77231997 -0.35984001 -1.6591001
0.41740999 -0.37845001 -1.7534
0.41999 -0.37806001 -1.7516
0.42256999 -0.37766999 -1.7498
0.42605001 -0.37788001 -1.7508
0.43075001 -0.37889001 -1.7555
0.43241 -0.37788999 -1.7509
0.43744001 -0.37909999 -1.7565
0.44033 -0.37891001 -1.7555
0.44321999 -0.37871 -1.7546
0.4461 -0.37851 -1.7537
0.44992 -0.37891001 -1.7556
0.45313001 -0.37891001 -1.7556
0.45633 -0.37889999 -1.7555
0.45921001 -0.37869999 -1.7546
0.4621 -0.37849 -1.7536
0.46529999 -0.37849 -1.7536
0.46882999 -0.37867999 -1.7545
0.47204 -0.37867001 -1.7545
0.47459999 -0.37825999 -1.7526
0.47911999 -0.37904999 -1.7562
0.48102 -0.37823999 -1.7524
0.48456001 -0.37842 -1.7533
0.48677999 -0.37781 -1.7505
0.491 -0.37839001 -1.7531
0.49454999 -0.37856999 -1.7539999
0.49777001 -0.37854999 -1.7539001
0.50099999 -0.37853 -1.7538
0.50388002 -0.37830999 -1.7528
0.50744998 -0.37847999 -1.7536
0.51135999 -0.37885001 -1.7553
0.51356 -0.37823001 -1.7524
0.51748002 -0.3786 -1.7541
0.52035999 -0.37836999 -1.7531
0.52500999 -0.37913001 -1.7566
0.52719003 -0.37851 -1.7537
0.53078002 -0.37867001 -1.7545
0.53365999 -0.37843999 -1.7534
0.53726 -0.3786 -1.7541
0.54086 -0.37876001 -1.7549
0.54374999 -0.37853 -1.7538
0.54736 -0.37867999 -1.7545
0.55023998 -0.37843999 -1.7534
0.55458999 -0.37898999 -1.7559
0.55711001 -0.37854999 -1.7539001
0.55998999 -0.37830999 -1.7528
0.56436002 -0.37885001 -1.7553
0.56873 -0.37939 -1.7578
0.57161999 -0.37915 -1.7567
0.57300001 -0.37812001 -1.7519
0.57512999 -0.37748 -1.7489001
0.49491 -0.33447999 -1.5497
0.68787003 -0.36067 -1.6711
0.67398 -0.35341001 -1.6374
0.67395002 -0.35199001 -1.6309
0.67887998 -0.35264999 -1.6339
0.68199998 -0.35255 -1.6334
0.69059002 -0.35471001 -1.6434
0.69419003 -0.35479 -1.6438
0.70191997 -0.35655999 -1.652
0.70462 -0.35626999 -1.6507
0.70778 -0.35616001 -1.6502
0.70585001 -0.35398999 -1.6401
0.70433998 -0.35202 -1.631
0.70653999 -0.35152999 -1.6287
0.70920002 -0.35124001 -1.6273
0.71325999 -0.3515 -1.6286
0.71827 -0.35213 -1.6315
0.72329998 -0.35275999 -1.6344
0.72644001 -0.35264 -1.6339
0.73197001 -0.35345 -1.6375999
0.73654997 -0.35389 -1.6396
0.74114001 -0.35431999 -1.6416
0.74478 -0.35438001 -1.6418999
0.75228 -0.35591999 -1.6490999
0.75691003 -0.35635 -1.651
0.76107001 -0.35659 -1.6521
0.76668 -0.35736999 -1.6558
0.77183002 -0.35798001 -1.6586
0.77699 -0.35857999 -1.6614
0.78118002 -0.35881001 -1.6624
0.4183 -0.37726 -1.7566
0.42177999 -0.37746999 -1.7575999
0.42497 -0.37748 -1.7577
0.42785999 -0.37728 -1.7568001
0.43105 -0.37729001 -1.7568001
0.43425 -0.37729999 -1.7568001
0.43775001 -0.3775 -1.7578
0.44095001 -0.37751001 -1.7578
0.44384 -0.37731001 -1.7569
0.44735 -0.37751001 -1.7578
0.45087001 -0.37771001 -1.7587
0.45376 -0.37751001 -1.7578
0.45695999 -0.3775 -1.7578
0.45953 -0.37709999 -1.7559
0.46241999 -0.37689999 -1.755
0.46498001 -0.37649 -1.7531
0.46915999 -0.37707999 -1.7558
0.47204 -0.37687001 -1.7548
0.47492999 -0.37665999 -1.7539001
0.47911999 -0.37724 -1.7566
0.48201001 -0.37702999 -1.7556
0.48622 -0.37761 -1.7582999
0.48844999 -0.377 -1.7555
0.49234 -0.37738001 -1.7572
0.49421 -0.37656999 -1.7534
0.4971 -0.37634999 -1.7524
0.50133997 -0.37693 -1.7551
0.50524998 -0.37729999 -1.7568001
0.50915998 -0.37766999 -1.7586
0.51205999 -0.37744999 -1.7575001
0.51459998 -0.37702 -1.7556
0.51748002 -0.3768 -1.7545
0.52072001 -0.37676999 -1.7544
0.52535999 -0.37753001 -1.7579
0.52789003 -0.37709999 -1.7559
0.53184003 -0.37746 -1.7575999
0.53473002 -0.37722999 -1.7565
0.53833997 -0.37739 -1.7573
0.54122001 -0.37716001 -1.7562
0.54374999 -0.37673 -1.7542
0.54663002 -0.37649 -1.7531
0.54951 -0.37625 -1.752
0.55312002 -0.37641001 -1.7527
0.55637002 -0.37636 -1.7525001
0.55962002 -0.37632 -1.7523
0.56287003 -0.37627 -1.7521
0.56686997 -0.37661999 -1.7537
0.57161999 -0.37735 -1.7571
0.57375997 -0.37671 -1.7541
0.57587999 -0.37608001 -1.7510999
0.50194001 -0.30202001 -1.4062999
0.69279999 -0.36102 -1.6811
0.67488003 -0.35210001 -1.6395
0.67755997 -0.35181999 -1.6382
0.67978001 -0.35135001 -1.636
0.69152999 -0.35481 -1.6521
0.69696999 -0.35563999 -1.656
0.69875997 -0.35497001 -1.6529
0.70238 -0.35505 -1.6533
0.70507997 -0.35475999 -1.6519001
0.70778 -0.35447001 -1.6505001
0.71047997 -0.35416999 -1.6490999
0.7062 -0.35109001 -1.6348
0.7098 -0.35115999 -1.6351
0.71153998 -0.35049999 -1.632
0.71654999 -0.35113001 -1.635
0.72109997 -0.35157001 -1.637
0.72566003 -0.35201001 -1.6391
0.72975999 -0.35225999 -1.6402
0.73243999 -0.35196 -1.6388
0.73750001 -0.35258001 -1.6417
0.7421 -0.35301 -1.6437
0.74910998 -0.35436001 -1.65
0.75325 -0.35460001 -1.6511
0.75691003 -0.35464999 -1.6514
0.76300001 -0.35563001 -1.6559
0.76863003 -0.35641 -1.6596
0.77427 -0.35719001 -1.6632
0.77894998 -0.35760999 -1.6651
0.78412002 -0.35820001 -1.6679
0.4183 -0.37549001 -1.757
0.42208001 -0.3759 -1.7589
0.42557999 -0.3761 -1.7599
0.42846999 -0.37591001 -1.7589999
0.43136001 -0.37571999 -1.7581
0.43425 -0.37553 -1.7572
0.43713999 -0.37533 -1.7563
0.44033 -0.37534001 -1.7563
0.44352999 -0.37534001 -1.7563
0.44735 -0.37573999 -1.7582
0.45087001 -0.37593001 -1.7591
0.45438999 -0.37613001 -1.76
0.45728001 -0.37593001 -1.7591
0.46017 -0.37573001 -1.7581
0.46305999 -0.37551999 -1.7572
0.46627 -0.37551999 -1.7572
0.46948001 -0.37551001 -1.7571
0.47301999 -0.3757 -1.758
0.47689 -0.37608001 -1.7598
0.47977999 -0.37586999 -1.7588
0.48300001 -0.37586001 -1.7587
0.48589 -0.37564 -1.7578
0.48978001 -0.37602001 -1.7595
0.49368 -0.37639999 -1.7613
0.49656999 -0.37617999 -1.7603
0.49947 -0.37597001 -1.7593
0.50235999 -0.37575001 -1.7582
0.50559002 -0.37571999 -1.7581
0.50915998 -0.3759 -1.7589
0.51205999 -0.37566999 -1.7579
0.51529002 -0.37564999 -1.7578
0.51818001 -0.37542 -1.7567
0.52212 -0.37579 -1.7584
0.52500999 -0.37555999 -1.7574
0.52789003 -0.37533 -1.7563
0.53149003 -0.37549999 -1.7571
0.53544998 -0.37584999 -1.7587
0.53868997 -0.37582001 -1.7586
0.54158002 -0.37558001 -1.7575001
0.54483002 -0.37553999 -1.7573
0.54736 -0.37511 -1.7553
0.55097002 -0.37527001 -1.756
0.55458999 -0.37542 -1.7567
0.55821002 -0.37557 -1.7574
0.56110001 -0.37533 -1.7563
0.56546998 -0.37586999 -1.7588
0.56873 -0.37582001 -1.7586
0.57161999 -0.37558001 -1.7574
0.57413 -0.37514001 -1.7553999
0.57551003 -0.37412 -1.7506
0.45469001 -0.31084001 -1.4545
0.48809999 -0.29435 -1.3773
0.68207002 -0.35343999 -1.6539
0.68387002 -0.35278001 -1.6508
0.68339998 -0.35119 -1.6433001
0.68790001 -0.35165 -1.6454999
0.69515002 -0.35323 -1.6529
0.69922 -0.35349 -1.6540999
0.69825 -0.35172001 -1.6458
0.70231998 -0.35198 -1.647
0.70686001 -0.35242999 -1.6490999
0.71187001 -0.35306999 -1.6521
0.71456999 -0.35277 -1.6507
0.71586001 -0.35192001 -1.6467
0.71247 -0.34922001 -1.6341
0.71561003 -0.34911001 -1.6336
0.72016001 -0.34955001 -1.6357
0.72425002 -0.34979999 -1.6368001
0.72881001 -0.35023999 -1.6389
0.73291999 -0.35049 -1.64
0.73703003 -0.35073999 -1.6411999
0.7421 -0.35135001 -1.6441
0.74575001 -0.35141 -1.6444
0.7518 -0.35238001 -1.6489
0.75594997 -0.35262001 -1.65
0.76107001 -0.35323 -1.6529
0.76717001 -0.35418999 -1.6574
0.77183002 -0.35460001 -1.6593
0.77797002 -0.35556 -1.6638
0.78363001 -0.35633999 -1.6674
0.78833002 -0.35674 -1.6693
0.41918999 -0.37433001 -1.7602
0.42267999 -0.37452999 -1.7612
0.42557999 -0.37435001 -1.7603
0.42817 -0.37395999 -1.7585
0.43105 -0.37377 -1.7575999
0.43454999 -0.37397 -1.7585
0.43836001 -0.37437001 -1.7604001
0.44095001 -0.37397999 -1.7586
0.44384 -0.37378001 -1.7575999
0.44672 -0.37358001 -1.7567
0.45149001 -0.37457001 -1.7613
0.45533001 -0.37496001 -1.7632
0.4576 -0.37437001 -1.7604001
0.46017 -0.37397 -1.7585
0.4637 -0.37415999 -1.7594
0.46658999 -0.37395999 -1.7585
0.47077999 -0.37454 -1.7612
0.47301999 -0.37393999 -1.7584
0.47786999 -0.37491 -1.7629
0.48043999 -0.37450001 -1.761
0.48399001 -0.37469 -1.7618999
0.48655999 -0.37428001 -1.76
0.48945001 -0.37406999 -1.7589999
0.49368 -0.37463999 -1.7617
0.49724999 -0.37481001 -1.7625
0.50048 -0.37479001 -1.7624
0.50338 -0.37458 -1.7614
0.50593001 -0.37415999 -1.7594
0.50950998 -0.37433001 -1.7602
0.51309001 -0.37450001 -1.761
0.51668 -0.37467 -1.7618001
0.51991999 -0.37463999 -1.7617
0.52351999 -0.37481001 -1.7625
0.52675998 -0.37478 -1.7623
0.53106999 -0.37533 -1.7649
0.53397 -0.37509999 -1.7638
0.53615999 -0.37448001 -1.7609
0.53868997 -0.37406 -1.7589
0.54158002 -0.37382999 -1.7578
0.54518998 -0.37397999 -1.7586
0.54881001 -0.37413999 -1.7593
0.55242997 -0.37428999 -1.76
0.55532002 -0.37404999 -1.7589
0.55931997 -0.37439001 -1.7605
0.56295002 -0.37454 -1.7612
0.56584001 -0.3743 -1.7601
0.56873 -0.37406 -1.7589
0.57236999 -0.37419999 -1.7596
0.57600999 -0.37435001 -1.7603
0.57814997 -0.37371999 -1.7573
0.57837999 -0.37211999 -1.7498
0.6929 -0.35345 -1.6619999
0.69063002 -0.35112 -1.6511
0.68922001 -0.34917 -1.6418999
0.69419003 -0.34981 -1.6449
0.69687998 -0.34952 -1.6435
0.70186001 -0.35014999 -1.6465
0.70686001 -0.35078001 -1.6495
0.71834999 -0.35398999 -1.6646
0.72153997 -0.35387999 -1.6641001
0.72566003 -0.35414001 -1.6653
0.72510999 -0.35255 -1.6578
0.71796 -0.3484 -1.6382999
0.71827 -0.34718001 -1.6325001
0.72236001 -0.34742999 -1.6337
0.72644001 -0.34768999 -1.6349
0.73197001 -0.34847999 -1.6387
0.73654997 -0.34891 -1.6407
0.74019003 -0.34898001 -1.641
0.74382001 -0.34904 -1.6413
0.74843001 -0.34946001 -1.6433001
0.75353003 -0.35005999 -1.6461
0.75863999 -0.35066 -1.6489
0.76473999 -0.35163 -1.6533999
0.77037001 -0.3524 -1.6571
0.77503002 -0.35281 -1.659
0.77921999 -0.35304001 -1.6601
0.78733999 -0.35471001 -1.668
0.4163 -0.37278 -1.7614
0.42038 -0.37338999 -1.7643
0.42328 -0.3732 -1.7634
0.42618001 -0.37301001 -1.7625
0.42998001 -0.37342 -1.7644
0.43288001 -0.37322 -1.7635
0.43577999 -0.37303001 -1.7625999
0.43867001 -0.37283999 -1.7617
0.44157001 -0.37265 -1.7608
0.44446 -0.37244999 -1.7599
0.44859999 -0.37303999 -1.7625999
0.45181 -0.37303999 -1.7625999
0.45565 -0.37343001 -1.7645
0.45855001 -0.37323001 -1.7635
0.46145001 -0.37303001 -1.7625999
0.46434 -0.37283 -1.7616
0.46691 -0.37243 -1.7596999
0.4698 -0.37222001 -1.7588
0.47268999 -0.37202001 -1.7578
0.47689 -0.37259001 -1.7605
0.48208001 -0.37375 -1.766
0.48366001 -0.37276 -1.7613
0.48655999 -0.37255001 -1.7603
0.48945001 -0.37233999 -1.7593
0.49368 -0.37290999 -1.762
0.49759001 -0.37327999 -1.7638
0.50081998 -0.37325999 -1.7637
0.50371999 -0.37303999 -1.7627
0.50730002 -0.37321001 -1.7635
0.51191002 -0.37397 -1.767
0.51481998 -0.37375 -1.766
0.51806998 -0.37371999 -1.7659
0.51956999 -0.37272 -1.7611001
0.52316999 -0.37288001 -1.7618999
0.52605999 -0.37266001 -1.7608
0.53106999 -0.37360001 -1.7653
0.53433001 -0.37356001 -1.7651
0.53723001 -0.37333 -1.7640001
0.54013002 -0.37310001 -1.7629
0.54373997 -0.37325999 -1.7637
0.54773003 -0.37360999 -1.7653
0.55135 -0.37376001 -1.766
0.55352002 -0.37314001 -1.7631
0.55642003 -0.37290001 -1.762
0.56005001 -0.37305 -1.7627
0.56331998 -0.37301001 -1.7625
0.56770003 -0.37354001 -1.765
0.57059997 -0.37329999 -1.7638
0.57349002 -0.37305 -1.7627
0.57639003 -0.37281001 -1.7616
0.57853001 -0.37218001 -1.7586
0.55865002 -0.36043999 -1.7031
0.61745 -0.34812 -1.6449
0.70059001 -0.35495001 -1.6772
0.68835998 -0.34858 -1.6471
0.69104999 -0.34829 -1.6457
0.69692999 -0.3493 -1.6505001
0.70008999 -0.34919 -1.65
0.70278001 -0.34889999 -1.6486
0.71701002 -0.35321 -1.6689
0.72066998 -0.35328001 -1.6693
0.7234 -0.35297999 -1.6679
0.72798997 -0.35341999 -1.6698999
0.72885001 -0.35238999 -1.6651
0.72264999 -0.34862 -1.6472
0.72204 -0.34704 -1.6398
0.72518998 -0.34693 -1.6393
0.72834003 -0.34681001 -1.6387
0.73243999 -0.34705999 -1.6399
0.73798001 -0.34784999 -1.6436
0.74162 -0.34790999 -1.6439
0.74575001 -0.34815001 -1.645
0.74988002 -0.34839001 -1.6461999
0.75594997 -0.34935001 -1.6507
0.76010001 -0.34959 -1.6518
0.76717001 -0.35091001 -1.6581
0.77134001 -0.35113999 -1.6591001
0.77454001 -0.35100001 -1.6585
0.78166997 -0.35231 -1.6647
0.78833002 -0.35343 -1.67
0.41747999 -0.37186 -1.7654999
0.42008001 -0.37147 -1.7637
0.42298001 -0.37129 -1.7628
0.42618001 -0.37130001 -1.7629
0.42907 -0.37110999 -1.762
0.43318 -0.37169999 -1.7648
0.43608001 -0.37151 -1.7639
0.43928999 -0.37152001 -1.7639
0.44187 -0.37112999 -1.7621
0.44508001 -0.37112999 -1.7621
0.44891 -0.37152001 -1.7639
0.45275 -0.37191001 -1.7658
0.45627999 -0.3721 -1.7667
0.45918 -0.37189999 -1.7658
0.46208 -0.37169999 -1.7648
0.46498001 -0.37149999 -1.7638
0.46788001 -0.37130001 -1.7629
0.4711 -0.37129 -1.7628
0.47400001 -0.37108999 -1.7618999
0.47722 -0.37107 -1.7618001
0.48142999 -0.37165001 -1.7645
0.48366001 -0.37105 -1.7617
0.48721999 -0.37123001 -1.7625
0.49112001 -0.3716 -1.7643
0.49502 -0.37197 -1.7661
0.49792001 -0.37176001 -1.7651
0.50116003 -0.37174001 -1.765
0.50440001 -0.37171 -1.7649
0.50660998 -0.37110999 -1.762
0.50985003 -0.37108999 -1.7618999
0.51309001 -0.37106001 -1.7618001
0.51736999 -0.37160999 -1.7644
0.52096999 -0.37178001 -1.7652
0.52351999 -0.37136 -1.7632
0.52711999 -0.37152001 -1.7640001
0.53000998 -0.37130001 -1.7629
0.53397 -0.37165001 -1.7646
0.53687 -0.37142 -1.7635
0.54155999 -0.37215999 -1.767
0.54482001 -0.37211999 -1.7668
0.54736 -0.37169999 -1.7648
0.55098999 -0.37185001 -1.7654999
0.55316001 -0.37123001 -1.7625999
0.55715001 -0.37156999 -1.7642
0.56041998 -0.37153 -1.7640001
0.56405997 -0.37167001 -1.7647001
0.56695002 -0.37143001 -1.7635
0.57059997 -0.37158 -1.7642
0.57236999 -0.37075999 -1.7603
0.57677001 -0.37129 -1.7628
0.57928002 -0.37085 -1.7608
0.56168997 -0.36030999 -1.7107
0.49873 -0.2938 -1.395
0.69243997 -0.34863001 -1.6552
0.69423002 -0.34797001 -1.6521
0.69647002 -0.34751001 -1.6499
0.69825 -0.34685001 -1.6468
0.70231998 -0.34711999 -1.6481
0.70639998 -0.34738001 -1.6493
0.71973997 -0.35128999 -1.6679
0.72293001 -0.35117999 -1.6673
0.72285998 -0.34979001 -1.6608
0.72604001 -0.34966999 -1.6602
0.72640997 -0.34847 -1.6545
0.72580999 -0.34689999 -1.647
0.72707999 -0.34606001 -1.643
0.72881001 -0.34540001 -1.6399
0.73243999 -0.34546 -1.6402
0.73654997 -0.34571001 -1.6414
0.74114001 -0.34613001 -1.6434
0.74671 -0.34691 -1.6471
0.74988002 -0.34678999 -1.6465
0.75594997 -0.34775001 -1.6511
0.76010001 -0.34797999 -1.6522
0.76571 -0.34875 -1.6558
0.77037001 -0.34915999 -1.6578
0.77355999 -0.34902999 -1.6572
0.77823001 -0.34942999 -1.6591001
0.78290999 -0.34983999 -1.661
0.78957999 -0.35095 -1.6663001
0.41778001 -0.37029999 -1.7668
0.42008001 -0.36972001 -1.7641
0.42328 -0.36973 -1.7641
0.42648 -0.36974001 -1.7642
0.43028 -0.37013999 -1.7661
0.43379 -0.37033999 -1.767
0.43669 -0.37015 -1.7661
0.43959001 -0.36996001 -1.7652
0.44310999 -0.37016001 -1.7661999
0.44569999 -0.36976999 -1.7643
0.44984999 -0.37035 -1.7671
0.45275 -0.37016001 -1.7661999
0.45627999 -0.37035 -1.7671
0.45982 -0.37053999 -1.768
0.46303999 -0.37053999 -1.768
0.46595001 -0.37033001 -1.767
0.46853 -0.36994001 -1.7651
0.47077999 -0.36934999 -1.7623
0.47400001 -0.36934 -1.7622
0.47786999 -0.36971 -1.7640001
0.48175001 -0.37009001 -1.7658
0.48497999 -0.37007001 -1.7658
0.48855001 -0.37024999 -1.7666
0.49212 -0.37042999 -1.7674
0.49535999 -0.37041 -1.7674
0.49994001 -0.37116 -1.771
0.50353003 -0.37134001 -1.7718
0.5061 -0.37092999 -1.7697999
0.50797999 -0.37013 -1.766
0.51087999 -0.36991999 -1.765
0.51378 -0.36970001 -1.7640001
0.51668 -0.36948001 -1.7629
0.52061999 -0.36983001 -1.7646
0.52421999 -0.37 -1.7654001
0.52816999 -0.37035 -1.7671
0.53037 -0.36974001 -1.7642
0.53468001 -0.37028 -1.7668
0.53759003 -0.37006 -1.7657
0.54155999 -0.37040001 -1.7673
0.54553998 -0.37075001 -1.7690001
0.54917002 -0.37090001 -1.7697001
0.55243999 -0.37086001 -1.7695
0.55497998 -0.37044001 -1.7675
0.55825001 -0.37039 -1.7673
0.56151998 -0.37035 -1.7671
0.56626999 -0.37107 -1.7704999
0.56880999 -0.37064001 -1.7684
0.57097 -0.37002 -1.7654999
0.57387 -0.36978 -1.7643
0.57865 -0.37049001 -1.7677
0.58003998 -0.36949 -1.7629
0.58179998 -0.36866999 -1.7591
0.54391003 -0.34814 -1.6611
0.61590999 -0.34277001 -1.6355
0.70561999 -0.34952 -1.6677001
0.70238 -0.34685999 -1.655
0.70554 -0.34676 -1.6545
0.70823997 -0.34647 -1.6531
0.71696001 -0.34854001 -1.663
0.72106999 -0.3488 -1.6641999
0.72285998 -0.34814 -1.6611
0.72838002 -0.34893 -1.6648999
0.73157001 -0.34882 -1.6643
0.7324 -0.34779999 -1.6595
0.73132998 -0.34604999 -1.6511
0.73212999 -0.34503001 -1.6463
0.73434001 -0.34456 -1.6440001
0.73703003 -0.34426001 -1.6426001
0.74066001 -0.34432 -1.6429
0.74478 -0.34456 -1.6440001
0.74891001 -0.3448 -1.6451
0.75256002 -0.34485 -1.6454
0.75669998 -0.34509 -1.6465
0.76424998 -0.34656999 -1.6536
0.76889998 -0.34698001 -1.6556
0.77306998 -0.34720999 -1.6566
0.77626997 -0.34707001 -1.656
0.77995998 -0.34711999 -1.6562001
0.78612 -0.34805 -1.6607
0.79329002 -0.34933999 -1.6668
0.41576001 -0.36930001 -1.7709
0.41806999 -0.36873001 -1.7681
0.42067999 -0.36835 -1.7663
0.42447999 -0.36875001 -1.7682
0.42857999 -0.36934 -1.7711
0.43088999 -0.36875999 -1.7683001
0.43379 -0.36858001 -1.7674
0.43669 -0.36838999 -1.7665
0.44113001 -0.36917001 -1.7702
0.44404 -0.36897999 -1.7693
0.44632 -0.36838999 -1.7665
0.44984999 -0.36859 -1.7675
0.45368999 -0.36897001 -1.7693
0.45691001 -0.36897001 -1.7693
0.46044999 -0.36916 -1.7702
0.46303999 -0.36877 -1.7683001
0.46529999 -0.36818001 -1.7654999
0.46917 -0.36855999 -1.7673
0.47207001 -0.36836001 -1.7664
0.47659999 -0.36912 -1.77
0.47983 -0.36910999 -1.77
0.48339999 -0.36928999 -1.7708
0.48598 -0.36888999 -1.7689
0.48954999 -0.36906001 -1.7697001
0.49279001 -0.36905 -1.7697001
0.49568999 -0.36884001 -1.7687
0.49825999 -0.36842999 -1.7667
0.50116003 -0.36822 -1.7657
0.50678003 -0.36954001 -1.772
0.50968999 -0.36932999 -1.771
0.5126 -0.36910999 -1.77
0.51551002 -0.36888999 -1.7689
0.51771998 -0.36829001 -1.766
0.52271003 -0.36921999 -1.7704999
0.52596998 -0.36919001 -1.7703
0.52923 -0.36916 -1.7702
0.53178 -0.36873999 -1.7682
0.53468001 -0.36851999 -1.7671
0.53794003 -0.36848 -1.767
0.54334998 -0.36959001 -1.7723
0.54626 -0.36936 -1.7711999
0.55097997 -0.37007999 -1.7746
0.55317003 -0.36947 -1.7717
0.55607998 -0.36923999 -1.7706
0.55899 -0.36901 -1.7695
0.56225997 -0.36895999 -1.7693
0.56516999 -0.36873001 -1.7681
0.56770003 -0.36829999 -1.7661
0.57246 -0.36901 -1.7695
0.57537001 -0.36877 -1.7683001
0.57902002 -0.36891001 -1.7690001
0.58042002 -0.36791 -1.7642
0.58179998 -0.36691001 -1.7594
0.43798 -0.294 -1.4098001
0.70789999 -0.34876001 -1.6724
0.70008999 -0.3443 -1.651
0.70323998 -0.34419999 -1.6505001
0.70778 -0.34463 -1.6526
0.71696001 -0.34687999 -1.6634001
0.71968001 -0.34659001 -1.6619999
0.72751999 -0.34828001 -1.6701
0.73587 -0.35014999 -1.6791
0.73767 -0.3495 -1.6759
0.73382002 -0.34667999 -1.6624
0.73321998 -0.34512001 -1.6549
0.73260999 -0.34356999 -1.6475
0.73482001 -0.34309 -1.6452
0.73846 -0.34314999 -1.6454999
0.74114001 -0.34286001 -1.6441
0.74526 -0.34309 -1.6452
0.74939001 -0.34333 -1.6463
0.75546002 -0.34428 -1.6509
0.76107001 -0.34505001 -1.6546
0.76424998 -0.34492001 -1.654
0.76889998 -0.34531999 -1.6559
0.77306998 -0.34555 -1.6569999
0.7802 -0.34683999 -1.6632
0.78341001 -0.34670001 -1.6625
0.78908002 -0.34744999 -1.6661
0.79378998 -0.34784999 -1.668
0.41604999 -0.36770999 -1.7722
0.41926 -0.36772001 -1.7723
0.42245999 -0.36772999 -1.7723
0.42627001 -0.36813 -1.7742
0.42947999 -0.36814001 -1.7743
0.4321 -0.36776 -1.7724
0.43439999 -0.36717999 -1.7696
0.43761 -0.36717999 -1.7697001
0.44143999 -0.36757001 -1.7715
0.44435 -0.36737999 -1.7706
0.44725001 -0.36719 -1.7697001
0.45078 -0.36737999 -1.7706
0.45432001 -0.36757001 -1.7715
0.45723 -0.36737999 -1.7706
0.45982 -0.36699 -1.7687
0.46432 -0.36774999 -1.7724
0.46755001 -0.36774999 -1.7724
0.4711 -0.36793 -1.7733001
0.47466001 -0.36811 -1.7740999
0.47758001 -0.36791 -1.7732
0.48049 -0.36770999 -1.7722
0.48438999 -0.36807999 -1.774
0.48664001 -0.36748999 -1.7711
0.49021 -0.36765999 -1.772
0.49279001 -0.36726001 -1.77
0.49568999 -0.36704999 -1.7690001
0.49926999 -0.36722001 -1.7699
0.50318998 -0.36758 -1.7716
0.50678003 -0.36774999 -1.7724
0.51002997 -0.36772999 -1.7723
0.51293999 -0.36750999 -1.7713
0.51585001 -0.3673 -1.7702
0.51980001 -0.36765 -1.7719001
0.52306002 -0.36761999 -1.7718
0.52631998 -0.36759001 -1.7716
0.52923 -0.36737001 -1.7706
0.53213 -0.36715001 -1.7695
0.53504002 -0.36691999 -1.7684
0.53829998 -0.36689001 -1.7682
0.54299003 -0.36761001 -1.7717
0.54589999 -0.36737999 -1.7706
0.55062002 -0.36809999 -1.7740999
0.55317003 -0.36768001 -1.7721
0.55607998 -0.36745 -1.771
0.55899 -0.36722001 -1.7697999
0.56189001 -0.36699 -1.7687
0.56480002 -0.36675 -1.7676001
0.56993002 -0.36765 -1.7719001
0.57321 -0.36759999 -1.7717
0.57902002 -0.36712 -1.7694
0.58155 -0.36669999 -1.7673
0.58179998 -0.36513999 -1.7598
0.49513999 -0.32076001 -1.5459
0.6045 -0.33452001 -1.6122
0.70146 -0.34316999 -1.6539
0.70876002 -0.34469 -1.6612999
0.71147001 -0.34441 -1.6599
0.71511 -0.34448001 -1.6602
0.71968001 -0.34491 -1.6623
0.72612 -0.34606001 -1.6679
0.73400003 -0.34773999 -1.676
0.73486 -0.34672999 -1.6711
0.73523003 -0.34553999 -1.6653
0.73510998 -0.34417 -1.6587
0.73782003 -0.34387001 -1.6573
0.74053001 -0.34358001 -1.6559
0.74084002 -0.34239 -1.6502
0.74066001 -0.34101999 -1.6436
0.74430001 -0.34108001 -1.6438
0.74939001 -0.34167001 -1.6467
0.75691003 -0.34314999 -1.6538
0.76058 -0.3432 -1.6540999
0.76424998 -0.34325001 -1.6543
0.76792997 -0.34330001 -1.6545
0.77258998 -0.34369999 -1.6565
0.77724999 -0.3441 -1.6584001
0.78144002 -0.34432 -1.6595
0.78661001 -0.34489 -1.6622
0.79229999 -0.34564 -1.6658
0.41633999 -0.36611 -1.7735
0.42043999 -0.36669999 -1.7764
0.42335001 -0.36651999 -1.7755001
0.42657 -0.36651999 -1.7755001
0.42918 -0.36614999 -1.7737
0.43178999 -0.36577001 -1.7719001
0.43500999 -0.36577001 -1.7719001
0.43792 -0.36559001 -1.771
0.44143999 -0.36578 -1.7719001
0.44435 -0.36559001 -1.771
0.44819 -0.36598 -1.7729
0.45141 -0.36596999 -1.7729
0.45495 -0.36616001 -1.7738
0.45881 -0.36654001 -1.7756
0.46109 -0.36596 -1.7728
0.46527001 -0.36653 -1.7756
0.46882999 -0.36671999 -1.7765
0.47207001 -0.36671001 -1.7764
0.47466001 -0.36632001 -1.7745
0.47758001 -0.36611 -1.7735
0.48082 -0.36610001 -1.7735
0.48405999 -0.36609 -1.7733999
0.48730001 -0.36607 -1.7733001
0.49021 -0.36587 -1.7723
0.49312001 -0.36566001 -1.7713
0.49469 -0.36469001 -1.7666
0.49926999 -0.36543 -1.7702
0.50285 -0.36559999 -1.771
0.5061 -0.36557999 -1.7709
0.50968999 -0.36575001 -1.7717
0.51293999 -0.36572 -1.7716
0.51620001 -0.36568999 -1.7715
0.52118999 -0.36662 -1.776
0.52410001 -0.3664 -1.7749
0.52701998 -0.36618 -1.7738
0.52958 -0.36577001 -1.7719001
0.53319001 -0.36592001 -1.7726001
0.53716999 -0.36627001 -1.7743
0.54079998 -0.36642 -1.775
0.54407001 -0.36638001 -1.7747999
0.54806 -0.36671999 -1.7765
0.55062002 -0.36631 -1.7745
0.55352998 -0.36607999 -1.7733999
0.55644 -0.36585 -1.7722
0.56045002 -0.36618 -1.7739
0.56300002 -0.36576 -1.7718
0.56626999 -0.36570999 -1.7716
0.56993002 -0.36585999 -1.7723
0.57358003 -0.366 -1.773
0.57648998 -0.36576 -1.7718
0.58658999 -0.36405 -1.7635
0.42724001 -0.28461 -1.3787
0.71885997 -0.34560001 -1.6741
0.71556997 -0.34298 -1.6615
0.71875 -0.34287 -1.6609
0.72239 -0.34294 -1.6612999
0.72931999 -0.34426001 -1.6677001
0.73439002 -0.34485999 -1.6706001
0.74418002 -0.34724 -1.6821001
0.74361998 -0.3457 -1.6746
0.74730003 -0.34575999 -1.6749001
0.74432999 -0.34332001 -1.6631
0.74752003 -0.3432 -1.6625
0.74593002 -0.34130999 -1.6533999
0.74575001 -0.33995 -1.6468
0.74939001 -0.34 -1.647
0.75305003 -0.34006 -1.6473
0.75863999 -0.34082001 -1.651
0.76279002 -0.34103999 -1.6521
0.76646 -0.34108999 -1.6523
0.77063 -0.34132001 -1.6533999
0.77626997 -0.34207001 -1.6569999
0.78094 -0.34246001 -1.659
0.78464001 -0.3425 -1.6592
0.78833997 -0.34254 -1.6594
0.79352999 -0.34311 -1.6621
0.41780999 -0.36533999 -1.7785
0.42103001 -0.36535001 -1.7786
0.42365 -0.36498001 -1.7768
0.42686999 -0.36498001 -1.7768
0.42947999 -0.36460999 -1.775
0.43239999 -0.36442 -1.7740999
0.43531001 -0.36423999 -1.7732
0.43913999 -0.36462 -1.7751
0.44266999 -0.36482 -1.776
0.44558001 -0.36463001 -1.7751
0.44942999 -0.36500999 -1.7769001
0.45297 -0.36520001 -1.7779
0.45589 -0.36500999 -1.7769001
0.45881 -0.36480999 -1.776
0.46204001 -0.36480999 -1.776
0.46527001 -0.36480001 -1.7759
0.46915001 -0.36517 -1.7776999
0.47207001 -0.36497 -1.7768
0.47466001 -0.36458001 -1.7749
0.47758001 -0.36438 -1.7739
0.48146999 -0.36475 -1.7757
0.48603001 -0.3655 -1.7793
0.48895001 -0.36528999 -1.7783
0.49186999 -0.36509001 -1.7773
0.49412 -0.36449999 -1.7745
0.49737 -0.36447999 -1.7744
0.50095999 -0.36465001 -1.7752
0.50454998 -0.36482 -1.776
0.50678003 -0.36423001 -1.7731
0.51139998 -0.36496001 -1.7767
0.51362997 -0.36436999 -1.7738
0.51757997 -0.36471999 -1.7755001
0.52223003 -0.36544999 -1.7790999
0.52515 -0.36522999 -1.778
0.52806997 -0.36500999 -1.7769001
0.53062999 -0.3646 -1.775
0.53390002 -0.36456999 -1.7747999
0.53788 -0.36491001 -1.7765
0.54150999 -0.36506 -1.7772
0.54443002 -0.36484 -1.7761
0.54878002 -0.36535999 -1.7787
0.55315 -0.36589 -1.7812001
0.55497998 -0.3651 -1.7774
0.55790001 -0.36487001 -1.7762001
0.56155002 -0.36500999 -1.7769001
0.56484002 -0.36497 -1.7767
0.56738001 -0.36454999 -1.7747
0.57103997 -0.36469001 -1.7754
0.58240002 -0.36028001 -1.7539001
0.54575998 -0.30596 -1.4895
0.72209001 -0.34520999 -1.6806
0.72021002 -0.34314001 -1.6705
0.72153997 -0.34232 -1.6665
0.72425997 -0.34202999 -1.6651
0.73446 -0.34459001 -1.6775
0.74237001 -0.34625 -1.6856
0.74842 -0.34720001 -1.6902
0.74928999 -0.34619001 -1.6853
0.74541003 -0.34340999 -1.6718
0.74623001 -0.34241 -1.6669
0.74752003 -0.34158 -1.6629
0.74783999 -0.34040001 -1.6571
0.74862999 -0.33939999 -1.6523
0.75228 -0.33945 -1.6525
0.75546002 -0.33932999 -1.6519001
0.75961 -0.33956 -1.653
0.76424998 -0.33996001 -1.655
0.76841998 -0.34018001 -1.6561
0.77258998 -0.34040999 -1.6572
0.77724999 -0.34079999 -1.6591001
0.78341001 -0.34172001 -1.6636
0.78661001 -0.34158 -1.6629
0.78982002 -0.34145001 -1.6622
0.79701 -0.34270999 -1.6684
0.41723001 -0.36324999 -1.777
0.42072999 -0.36344999 -1.778
0.42306 -0.36289001 -1.7753
0.42596999 -0.36269999 -1.7744
0.42947999 -0.36289999 -1.7753
0.43331 -0.36329001 -1.7772
0.43713 -0.36368001 -1.7790999
0.44158 -0.36443999 -1.7829
0.44389999 -0.36386999 -1.7801
0.44681999 -0.36368001 -1.7792
0.45067 -0.36406001 -1.781
0.45453 -0.36443999 -1.7829
0.45715001 -0.36406001 -1.781
0.45975 -0.36368001 -1.7790999
0.46204001 -0.36309999 -1.7763
0.46559 -0.36328 -1.7772
0.46851 -0.36309001 -1.7762001
0.47174999 -0.36307999 -1.7762001
0.47402 -0.36250001 -1.7733999
0.4779 -0.36287001 -1.7752
0.48212001 -0.36342001 -1.7779
0.48701999 -0.36436 -1.7824
0.49026999 -0.36434001 -1.7824
0.4932 -0.36412999 -1.7814
