# .PCD v0.7 - Point Cloud Data file format
VERSION 0.7
FIELDS x y z
SIZE 4 4 4
TYPE F F F
COUNT 1 1 1
WIDTH 1569
HEIGHT 1
VIEWPOINT 0 0 0 1 0 0 0
POINTS 1569
DATA ascii
-0.070275001 -0.64231998 -1.2661999
-0.068000004 -0.64319998 -1.2679
-0.065839 -0.64182001 -1.2652
-0.063481003 -0.64406002 -1.2696
-0.061383002 -0.64177001 -1.2651
-0.058977999 -0.64445001 -1.2704
-0.056834001 -0.64306003 -1.2677
-0.054501001 -0.64438999 -1.2703
-0.052262999 -0.64434999 -1.2702
-0.050026 -0.64432001 -1.2701
-0.047788002 -0.64428002 -1.2701
-0.04555 -0.64424002 -1.27
-0.043354999 -0.64375001 -1.2690001
-0.041119002 -0.6437 -1.2689
-0.038929 -0.64320999 -1.2679
-0.036649 -0.64361 -1.2687
-0.034364998 -0.64401001 -1.2695
-0.032078002 -0.64442003 -1.2703
-0.02984 -0.64436001 -1.2702
-0.027548 -0.64476001 -1.271
-0.025420001 -0.64380002 -1.2691
-0.023011999 -0.6451 -1.2717
-0.021009 -0.64323002 -1.268
-0.018774999 -0.64317 -1.2679
-0.016542001 -0.64310998 -1.2678
-0.014438 -0.64213997 -1.2658
-0.012209 -0.64208001 -1.2657
-0.010048 -0.64156002 -1.2647001
-0.0076116002 -0.64284003 -1.2672
-0.0053082001 -0.64322001 -1.268
-0.0030016 -0.64359999 -1.2687
-0.00076674001 -0.64353001 -1.2686
0.0015445 -0.64389998 -1.2693
0.0038588999 -0.64427 -1.27
0.0060963002 -0.64419001 -1.2699
0.0083334995 -0.64411002 -1.2697001
0.01057 -0.64402002 -1.2696
0.012721 -0.64349002 -1.2685
0.014956 -0.64340001 -1.2683001
0.017012 -0.64240998 -1.2664
0.019242 -0.64231998 -1.2661999
0.021563999 -0.64267999 -1.2668999
0.024172001 -0.64437997 -1.2703
0.02641 -0.64428997 -1.2701
0.028550001 -0.64374 -1.2690001
0.030486999 -0.64229 -1.2661
0.033020001 -0.64354002 -1.2686
0.035356998 -0.64388001 -1.2693
0.037593 -0.64377999 -1.2691
0.040041 -0.64456999 -1.2706
0.04228 -0.64446002 -1.2704
0.044518001 -0.64434999 -1.2702
0.046533 -0.64333999 -1.2682
0.04888 -0.64367002 -1.2689
0.051114999 -0.64355999 -1.2686
0.053582001 -0.64433998 -1.2702
0.055583 -0.64332002 -1.2682
0.058056999 -0.64410001 -1.2697001
0.060293999 -0.64397001 -1.2695
0.062530003 -0.64385003 -1.2692
0.064765997 -0.64371997 -1.2690001
0.067509003 -0.64538997 -1.2722
0.069622003 -0.64481002 -1.2711
0.071860999 -0.64468002 -1.2708
0.074100003 -0.64454001 -1.2706
0.076338999 -0.64441001 -1.2703
0.078304999 -0.64336997 -1.2683001
0.080539003 -0.64323002 -1.268
0.083190002 -0.64444 -1.2704
0.085005 -0.64295 -1.2674
0.087949999 -0.64503998 -1.2716
0.089901999 -0.64399999 -1.2695
0.092575997 -0.64520001 -1.2719001
0.094668999 -0.64459997 -1.2707
0.096758001 -0.64399999 -1.2695
0.098843001 -0.64340001 -1.2683001
0.10138 -0.64414001 -1.2697999
0.10377 -0.64442998 -1.2703
0.10601 -0.64427 -1.27
0.10825 -0.64410001 -1.2697001
0.11065 -0.64438999 -1.2703
0.11272 -0.64377999 -1.2691
0.11528 -0.64450002 -1.2704999
0.11736 -0.64389002 -1.2693
0.11959 -0.64371997 -1.2689
0.12183 -0.64354998 -1.2686
0.12406 -0.64336997 -1.2683001
0.12664001 -0.64409 -1.2697001
0.12887999 -0.64390999 -1.2693
0.13164 -0.64507002 -1.2716
0.1337 -0.64444 -1.2704
0.13612001 -0.64469999 -1.2709
0.138 -0.64363003 -1.2688
0.14023 -0.64344001 -1.2684
0.14264999 -0.6437 -1.2689
0.14526001 -0.6444 -1.2703
0.14805999 -0.64554 -1.2725
0.14973 -0.64401001 -1.2695
0.15197 -0.64381999 -1.2691
0.15401 -0.64317 -1.2679
0.15702 -0.64475 -1.271
0.15965 -0.64543998 -1.2723
0.16209 -0.64568001 -1.2728
0.16413 -0.64503002 -1.2715
0.16677 -0.64570999 -1.2729
0.16902 -0.6455 -1.2725
0.17126 -0.64529002 -1.272
0.17329 -0.64463001 -1.2707
0.17532 -0.64397001 -1.2695
0.17777 -0.64420003 -1.2699
0.18064 -0.64530998 -1.2721
0.18267 -0.64464998 -1.2708
0.18491 -0.64442998 -1.2703
0.18693 -0.64376003 -1.2690001
0.18916 -0.64354002 -1.2686
0.19096 -0.64243001 -1.2664
0.19408 -0.64396 -1.2694
0.19653 -0.64416999 -1.2697999
0.19967 -0.64569998 -1.2729
0.20237 -0.64635003 -1.2740999
0.20507 -0.64699 -1.2754
0.20640001 -0.64499003 -1.2715
0.20863999 -0.64475 -1.271
0.21111 -0.64494997 -1.2714
0.21358 -0.64515001 -1.2718
0.21653 -0.64622003 -1.2739
0.21926001 -0.64684999 -1.2751
0.22126 -0.64616001 -1.2738
0.22327 -0.64547002 -1.2724
0.22502001 -0.64433998 -1.2702
0.22725999 -0.64407998 -1.2697001
0.22973999 -0.64425999 -1.27
0.23247001 -0.64488 -1.2711999
0.23470999 -0.64462 -1.2707
0.23746 -0.64523 -1.2719001
0.2397 -0.64497 -1.2714
0.24194001 -0.64469999 -1.2709
0.24417999 -0.64442998 -1.2704
0.24641 -0.64415997 -1.2697999
0.24890999 -0.64433002 -1.2701
0.25141001 -0.64449 -1.2704999
0.25391001 -0.64464998 -1.2708
0.25615001 -0.64437002 -1.2702
0.25839001 -0.64409 -1.2697001
0.26062 -0.64380997 -1.2691
0.26339999 -0.6444 -1.2703
0.26673001 -0.64585 -1.2732
0.26897001 -0.64556998 -1.2726001
0.27121001 -0.64528 -1.272
0.27344999 -0.64498001 -1.2714
0.27513 -0.64381999 -1.2692
0.27821001 -0.64482999 -1.2711
0.28073001 -0.64497 -1.2714
0.28382999 -0.64596999 -1.2733999
0.28606999 -0.64567 -1.2728
0.28802001 -0.64493001 -1.2713
0.29025999 -0.64463001 -1.2707
0.29249999 -0.64432001 -1.2701
0.29591 -0.64573997 -1.2729
0.29815 -0.64543003 -1.2723
0.30039001 -0.64512002 -1.2717
0.30322999 -0.64567 -1.2728
0.30577001 -0.64578003 -1.273
0.30801001 -0.64546001 -1.2724
0.31055999 -0.64556998 -1.2726001
0.31310001 -0.64568001 -1.2728
0.31472999 -0.64449 -1.2704999
0.31788999 -0.64546001 -1.2724
0.32075 -0.64599001 -1.2733999
0.32300001 -0.64565998 -1.2728
0.32523999 -0.64533001 -1.2721
0.32778999 -0.64542001 -1.2723
0.33065999 -0.64595002 -1.2733001
0.33322999 -0.64604002 -1.2735
0.33611 -0.64655 -1.2745
0.33803001 -0.64578003 -1.273
0.34060001 -0.64586997 -1.2732
0.34316 -0.64595002 -1.2733001
0.34540999 -0.64560002 -1.2727
0.34764999 -0.64525002 -1.272
0.35055 -0.64574999 -1.273
0.35279 -0.64539999 -1.2723
0.35503 -0.64503998 -1.2716
0.35727 -0.64468002 -1.2709
0.36052001 -0.64560002 -1.2727
0.36377001 -0.64652002 -1.2745
0.36568001 -0.64573002 -1.2729
0.36928001 -0.64705998 -1.2755001
0.37084001 -0.64583999 -1.2731
0.37343001 -0.64590001 -1.2732
0.37533 -0.6451 -1.2717
0.37757 -0.64472997 -1.2709
0.38049999 -0.64520001 -1.2719001
0.38345 -0.64567 -1.2728
0.38534001 -0.64486998 -1.2711999
0.38863999 -0.64574999 -1.273
0.39017001 -0.64451998 -1.2704999
0.39241001 -0.64414001 -1.2697999
0.39572001 -0.64502001 -1.2715
0.39904001 -0.64589 -1.2732
0.40127999 -0.6455 -1.2725
0.40461001 -0.64636999 -1.2742
0.40722001 -0.64639997 -1.2742
0.40983 -0.64642 -1.2743
0.41134 -0.64517999 -1.2718
0.41506001 -0.64644998 -1.2743
0.41804999 -0.64688998 -1.2752
0.42028999 -0.64648002 -1.2744
0.42179 -0.64523 -1.2719001
0.42440999 -0.64524001 -1.272
0.42703 -0.64525002 -1.272
0.43002999 -0.64567 -1.2728
0.43303001 -0.64608997 -1.2736
0.43566 -0.64608997 -1.2736
0.43790001 -0.64567 -1.2728
0.43976 -0.64482999 -1.2711
0.44198999 -0.6444 -1.2703
0.44617999 -0.64605999 -1.2736
0.44841999 -0.64563 -1.2727
0.45106 -0.64560997 -1.2727
0.45289999 -0.64477003 -1.271
0.45592999 -0.64516002 -1.2718
0.45897001 -0.64555001 -1.2726001
0.46201 -0.64594001 -1.2733001
0.46465001 -0.64591998 -1.2733001
0.46649 -0.64506 -1.2716
0.46913001 -0.64503002 -1.2715
0.47218001 -0.64541 -1.2723
0.47483 -0.64537001 -1.2722
0.47830001 -0.64614999 -1.2738
0.48135999 -0.64652002 -1.2745
0.48401999 -0.64648002 -1.2744
0.48668 -0.64643002 -1.2743
0.48934001 -0.64638001 -1.2742
0.49200001 -0.64633 -1.2740999
0.49423999 -0.64586002 -1.2732
0.49774 -0.64662999 -1.2747
0.50082999 -0.64697999 -1.2754
0.50308001 -0.64651 -1.2744
0.50532001 -0.64603001 -1.2735
0.50799 -0.64595997 -1.2733999
0.51024002 -0.64547998 -1.2724
0.51291001 -0.64541 -1.2723
0.51600999 -0.64574999 -1.2729
0.51955003 -0.64648998 -1.2744
0.52179003 -0.64600003 -1.2733999
0.52534002 -0.64673001 -1.2749
0.52846003 -0.64705002 -1.2755001
0.53026998 -0.64614999 -1.2737
0.53250998 -0.64565998 -1.2728
0.5352 -0.64556003 -1.2726001
0.54009998 -0.64749998 -1.2764
0.54234999 -0.64699 -1.2754
0.54504001 -0.64688998 -1.2752
0.54773003 -0.64679003 -1.275
0.55043 -0.64668 -1.2747999
0.55312997 -0.64657003 -1.2746
0.55581999 -0.64646 -1.2744
0.55943 -0.64715999 -1.2757
0.56212997 -0.64704001 -1.2755001
0.56529999 -0.64731997 -1.2761
0.56800002 -0.64719999 -1.2758
0.57024997 -0.64668 -1.2747999
0.57388002 -0.64735001 -1.2761
0.57612997 -0.64682001 -1.2751
0.57884002 -0.64669001 -1.2747999
0.58061999 -0.64574999 -1.273
0.58239001 -0.64481997 -1.2711
0.5851 -0.64468002 -1.2708
0.58969998 -0.64613998 -1.2737
0.59336001 -0.64679003 -1.275
0.59608001 -0.64664 -1.2747
0.59832001 -0.64608997 -1.2736
0.60104001 -0.64594001 -1.2733001
0.60472 -0.64657998 -1.2746
0.60745001 -0.64642 -1.2743
0.60969001 -0.64586997 -1.2732
0.61242002 -0.64569998 -1.2729
0.61514997 -0.64554 -1.2725
0.61786997 -0.64537001 -1.2722
0.62059999 -0.64520001 -1.2719001
0.62431002 -0.64582002 -1.2731
0.62998998 -0.648 -1.2774
0.63224 -0.64743 -1.2763
0.63547999 -0.64763999 -1.2767
0.63624001 -0.64587998 -1.2732
0.63848001 -0.64529997 -1.2721
0.64121997 -0.64511001 -1.2717
0.64646 -0.64687997 -1.2752
0.64920998 -0.64668 -1.2747999
0.65196002 -0.64648002 -1.2744
0.65319002 -0.64511001 -1.2717
0.65594 -0.64490998 -1.2713
0.65868998 -0.64469999 -1.2709
0.66245002 -0.64526999 -1.272
0.6652 -0.64506 -1.2716
0.67000002 -0.64639997 -1.2742
0.67430001 -0.64735001 -1.2761
0.67758 -0.64750999 -1.2764
0.68033999 -0.64728999 -1.276
0.68259001 -0.64666998 -1.2747999
0.68588001 -0.64683002 -1.2751
0.68968999 -0.64736998 -1.2761
0.69349998 -0.64789999 -1.2772
0.69679999 -0.64805001 -1.2775
0.69958001 -0.64780998 -1.277
0.70235002 -0.64756 -1.2765
0.70512998 -0.64731002 -1.276
0.70844001 -0.64744997 -1.2763
0.71174997 -0.64758003 -1.2766
0.71452999 -0.64731997 -1.276
0.71785003 -0.64744002 -1.2763
0.72223997 -0.64832997 -1.278
0.72395003 -0.6473 -1.276
0.72619998 -0.64665002 -1.2747
0.72899002 -0.64638001 -1.2742
0.73286003 -0.64687002 -1.2752
0.73619002 -0.64696997 -1.2754
0.73789001 -0.64592999 -1.2733001
0.74014002 -0.64526999 -1.272
0.74401999 -0.64574999 -1.2729
0.75010002 -0.64772999 -1.2769001
0.75344998 -0.64780998 -1.277
0.75735998 -0.64827001 -1.2779
0.75906003 -0.64722002 -1.2759
0.76186001 -0.64692003 -1.2753
0.76411003 -0.64624 -1.2739
0.76858002 -0.64705998 -1.2755001
0.77195001 -0.64713001 -1.2757
0.77530998 -0.64718997 -1.2758
0.77811998 -0.64687002 -1.2752
0.78092998 -0.64656001 -1.2745
0.78487003 -0.64697999 -1.2754
0.78711998 -0.64627999 -1.274
0.79049999 -0.64633 -1.2740999
0.79330999 -0.64600003 -1.2733999
0.79727 -0.64640999 -1.2743
-0.98501003 -0.63889998 -1.2625
-0.98049998 -0.63812 -1.2609
-0.97885001 -0.63918 -1.263
-0.97719997 -0.64025003 -1.2651
-0.97496998 -0.64094001 -1.2665
-0.97273999 -0.64162999 -1.2679
-0.96768999 -0.64046001 -1.2654999
-0.96376997 -0.64002001 -1.2647001
-0.95929998 -0.63920999 -1.2631
-0.91402 -0.61106002 -1.2075
-0.84943002 -0.56972998 -1.1258
-0.94261003 -0.63449001 -1.2537
-0.94594997 -0.63891 -1.2625
-0.94318002 -0.63919997 -1.263
-0.94150001 -0.64024001 -1.2651
-0.93707001 -0.63940001 -1.2634
-0.93650001 -0.64118999 -1.267
-0.93261999 -0.64072001 -1.2661
-0.92821002 -0.63985997 -1.2644
-0.92325997 -0.63862002 -1.2618999
-0.91940999 -0.63814002 -1.261
-0.91719002 -0.63879001 -1.2622
-0.91496003 -0.63942999 -1.2635
-0.91004002 -0.63817 -1.261
-0.90943998 -0.63994998 -1.2645
-0.90666997 -0.64020997 -1.2651
-0.90337998 -0.64008999 -1.2648
-0.89955002 -0.63958001 -1.2638
-0.89626002 -0.63944 -1.2635
-0.89191997 -0.63854003 -1.2617
-0.88916999 -0.63878 -1.2622
-0.88800001 -0.64016998 -1.265
-0.88524997 -0.64041001 -1.2654001
-0.88248998 -0.64064997 -1.2659
-0.87607998 -0.63818002 -1.261
-0.81759 -0.59717 -1.1799999
-0.79267001 -0.58076 -1.1476001
-0.83885002 -0.61723 -1.2196
-0.86306 -0.63753003 -1.2598
-0.86084002 -0.63814002 -1.2609
-0.85861999 -0.63874 -1.2621
-0.85690999 -0.63972002 -1.2641
-0.85469002 -0.64032 -1.2653
-0.85246003 -0.64091998 -1.2664
-0.84768999 -0.63957 -1.2638
-0.84394997 -0.63898998 -1.2625999
-0.84171999 -0.63958001 -1.2638
-0.83849001 -0.63937998 -1.2634
-0.83425999 -0.63840002 -1.2615
-0.78204 -0.59987998 -1.1854
-0.77996999 -0.60042 -1.1864001
-0.81168997 -0.62760001 -1.2401
-0.81247997 -0.63051999 -1.2459
-0.80435997 -0.62637001 -1.2377
-0.78839999 -0.61592001 -1.2171
-0.78430003 -0.61488998 -1.215
-0.78070998 -0.61425 -1.2138
-0.77759999 -0.61400002 -1.2133
-0.77450001 -0.61374998 -1.2128
-0.77188998 -0.61388999 -1.2130001
-0.77025002 -0.61480999 -1.2149
-0.76907998 -0.61612999 -1.2175
-0.76743001 -0.61706001 -1.2193
-0.76529002 -0.61759001 -1.2203
-0.76362997 -0.61851001 -1.2222
-0.76148999 -0.61903 -1.2232
-0.75933999 -0.61956 -1.2242
-0.75672001 -0.61967999 -1.2244999
-0.75362998 -0.61940002 -1.2239
-0.75147998 -0.61992002 -1.2249
-0.74886 -0.62002999 -1.2252001
-0.74765003 -0.62134999 -1.2278
-0.74596 -0.62225997 -1.2296
-0.74426001 -0.62317002 -1.2314
-0.74118 -0.62287998 -1.2308
-0.73856002 -0.62298 -1.2309999
-0.74190003 -0.62830001 -1.2415
-0.74658 -0.63483 -1.2544
-0.74937999 -0.63976997 -1.2642
-0.74760997 -0.64068002 -1.266
-0.74537998 -0.64118999 -1.267
-0.74179 -0.64049 -1.2656
-0.73912001 -0.64060003 -1.2658
-0.73644 -0.64069998 -1.266
-0.73376 -0.6408 -1.2661999
-0.73153001 -0.64130002 -1.2672
-0.72974998 -0.64219999 -1.2690001
-0.72750998 -0.64270002 -1.27
-0.72263002 -0.64076 -1.2661
-0.71996999 -0.64085001 -1.2663
-0.7173 -0.64093 -1.2665
-0.7155 -0.64183003 -1.2682
-0.71196997 -0.64109999 -1.2668
-0.70931 -0.64117002 -1.2668999
-0.70664001 -0.64125001 -1.2671
-0.70398003 -0.64131999 -1.2672
-0.70003998 -0.64016002 -1.265
-0.69780999 -0.64064002 -1.2659
-0.69515997 -0.64069998 -1.266
-0.69165999 -0.63994002 -1.2645
-0.68944001 -0.64041001 -1.2654001
-0.68637002 -0.64006001 -1.2647001
-0.68414003 -0.64051998 -1.2657
-0.68107998 -0.64016002 -1.2649
-0.67885 -0.64061999 -1.2659
-0.67620999 -0.64067 -1.2659
-0.67316002 -0.64029998 -1.2652
-0.66970003 -0.63951999 -1.2637
-0.66666001 -0.63914001 -1.2629
-0.66443998 -0.63959002 -1.2638
-0.66302001 -0.64086002 -1.2663
-0.66119999 -0.64172 -1.268
-0.65815997 -0.64134002 -1.2673
-0.65592998 -0.64178002 -1.2681
-0.65289998 -0.64139003 -1.2674
-0.64946997 -0.64059001 -1.2658
-0.64565998 -0.63936001 -1.2634
-0.64344001 -0.63979 -1.2642
-0.64160001 -0.64064002 -1.2659
-0.63937002 -0.64107001 -1.2667
-0.63713998 -0.64148998 -1.2676001
-0.63336003 -0.64025003 -1.2651
-0.63112998 -0.64067 -1.266
-0.62698001 -0.63901001 -1.2627
-0.62514001 -0.63984001 -1.2643
-0.62215 -0.63941997 -1.2635
-0.61993003 -0.63984001 -1.2643
-0.61733001 -0.63982999 -1.2643
-0.61510003 -0.64024001 -1.2651
-0.61175001 -0.63938999 -1.2634
-0.60878003 -0.63896 -1.2625999
-0.60693002 -0.63977998 -1.2642
-0.60433 -0.63976002 -1.2642
-0.60211003 -0.64016002 -1.2649
-0.59877998 -0.63929999 -1.2632
-0.59656 -0.63968998 -1.2640001
-0.59433001 -0.64007998 -1.2648
-0.59210002 -0.64047998 -1.2656
-0.58987999 -0.64086002 -1.2663
-0.58728999 -0.64082998 -1.2663
-0.58506 -0.64121997 -1.267
-0.58212 -0.64076 -1.2661
-0.57883 -0.63986999 -1.2644
-0.57554001 -0.63897997 -1.2625999
-0.57367003 -0.63977998 -1.2642
-0.57145 -0.64015001 -1.2649
-0.56922001 -0.64052999 -1.2657
-0.56664997 -0.64047998 -1.2656
-0.56406999 -0.64042002 -1.2654999
-0.56116003 -0.63994002 -1.2645
-0.55962002 -0.64115 -1.2668999
-0.55602998 -0.63981998 -1.2643
-0.55379999 -0.64017999 -1.265
-0.55158001 -0.64054 -1.2657
-0.54935002 -0.64090002 -1.2664
-0.54679 -0.64082003 -1.2663
-0.54422998 -0.64074999 -1.2661
-0.54233003 -0.64152998 -1.2677
-0.53943998 -0.64103001 -1.2667
-0.53623003 -0.64008999 -1.2648
-0.53336 -0.63958001 -1.2638
-0.53113002 -0.63993001 -1.2645
-0.52858001 -0.63984001 -1.2643
-0.52667999 -0.64060998 -1.2658
-0.52445 -0.64095002 -1.2665
-0.52222002 -0.64128 -1.2672
-0.51936001 -0.64076 -1.2661
-0.51618999 -0.63980001 -1.2642
-0.51397002 -0.64012998 -1.2649
-0.51081002 -0.63916999 -1.263
-0.50827998 -0.63906997 -1.2628
-0.50545001 -0.63853002 -1.2617
-0.50353003 -0.63928002 -1.2632
-0.50130999 -0.63959998 -1.2638
-0.50059003 -0.64207 -1.2687
-0.49805 -0.64196002 -1.2685
-0.49493 -0.64098001 -1.2666
-0.49180999 -0.63999999 -1.2646
-0.48988 -0.64073998 -1.2661
-0.48765001 -0.64104998 -1.2667
-0.48484001 -0.64049 -1.2656
-0.48232001 -0.64037001 -1.2654001
-0.47979999 -0.64024001 -1.2651
-0.47786 -0.64096999 -1.2665
-0.47505999 -0.64039999 -1.2654001
-0.47284001 -0.64069998 -1.266
-0.47088999 -0.64143002 -1.2675
-0.46838 -0.64129001 -1.2672
-0.46559 -0.64071 -1.266
-0.46281001 -0.64014 -1.2649
-0.46112999 -0.64129001 -1.2672
-0.45943999 -0.64244998 -1.2695
-0.45694 -0.64230001 -1.2692
-0.45390001 -0.64126998 -1.2671
-0.45140001 -0.64112002 -1.2668
-0.44890001 -0.64095998 -1.2665
-0.44613999 -0.64037001 -1.2654001
-0.44496 -0.64239001 -1.2693
-0.44169 -0.64091998 -1.2664
-0.43946001 -0.64118999 -1.267
-0.43645 -0.64015001 -1.2649
-0.43423 -0.64041001 -1.2654001
-0.43175 -0.64024001 -1.2651
-0.42927 -0.64007002 -1.2648
-0.42704001 -0.64033002 -1.2653
-0.42480999 -0.64059001 -1.2658
-0.42258 -0.64083999 -1.2663
-0.42010999 -0.64065999 -1.2659
-0.41837001 -0.64178997 -1.2682
-0.41589001 -0.64161003 -1.2678
-0.41341999 -0.64142001 -1.2674
-0.41095001 -0.64122999 -1.2671
-0.40823999 -0.64060003 -1.2658
-0.40649 -0.64172 -1.268
-0.40355 -0.64064997 -1.2659
-0.40156001 -0.64133 -1.2672
-0.39908999 -0.64112997 -1.2668999
-0.39708999 -0.64179999 -1.2682
-0.39418 -0.64072001 -1.266
-0.39173001 -0.64051002 -1.2656
-0.38883001 -0.63941997 -1.2635
-0.38705 -0.64052999 -1.2657
-0.38503999 -0.64120001 -1.267
-0.38303 -0.64187002 -1.2683001
-0.38079 -0.64209002 -1.2688
-0.37812999 -0.64143002 -1.2675
-0.3759 -0.64165002 -1.2679
-0.37345001 -0.64143002 -1.2675
-0.37164 -0.64253002 -1.2696
-0.36939999 -0.64275002 -1.2701
-0.36675 -0.64208001 -1.2687
-0.36390999 -0.64095998 -1.2665
-0.36168 -0.64117002 -1.2668999
-0.35964999 -0.64182001 -1.2682
-0.35760999 -0.64247 -1.2695
-0.35558 -0.64311999 -1.2708
-0.35275 -0.64199001 -1.2686
-0.35052001 -0.64218998 -1.2690001
-0.34713 -0.63972998 -1.2641
-0.34584999 -0.64214998 -1.2689
-0.34343001 -0.6419 -1.2684
-0.34064001 -0.64076 -1.2661
-0.33822 -0.64051002 -1.2656
-0.33599001 -0.64069998 -1.266
-0.33395001 -0.64133 -1.2673
-0.33188999 -0.64196002 -1.2685
-0.32966 -0.64213997 -1.2689
-0.32743001 -0.64231998 -1.2692
-0.32501999 -0.64205998 -1.2687
-0.32243001 -0.64134997 -1.2673
-0.3202 -0.64152998 -1.2676001
-0.31779999 -0.64126003 -1.2671
-0.3154 -0.64099002 -1.2666
-0.31316999 -0.64116001 -1.2668999
-0.31077999 -0.64087999 -1.2664
-0.30886999 -0.64194 -1.2685
-0.30647999 -0.64165998 -1.2679
-0.30441001 -0.64227003 -1.2691
-0.30184999 -0.64153999 -1.2677
-0.29993999 -0.64258999 -1.2697999
-0.29723001 -0.64140999 -1.2674
-0.29499999 -0.64156997 -1.2677
-0.29247001 -0.64082998 -1.2663
-0.29039001 -0.64143002 -1.2675
-0.28816 -0.64157999 -1.2678
-0.28606999 -0.64218003 -1.2689
-0.28354999 -0.64143997 -1.2675
-0.28132001 -0.64157999 -1.2678
-0.27908 -0.64173001 -1.268
-0.27616 -0.63963002 -1.2639
-0.27393001 -0.63976997 -1.2642
-0.27184001 -0.64036 -1.2653
-0.27028 -0.64273 -1.27
-0.26818001 -0.64332002 -1.2711999
-0.26541999 -0.64165998 -1.2679
-0.26319 -0.64178997 -1.2682
-0.26095 -0.64191997 -1.2684
-0.25883999 -0.64249998 -1.2696
-0.25648999 -0.64218003 -1.2689
-0.25413001 -0.64184999 -1.2683001
-0.25178 -0.64152998 -1.2676001
-0.24954 -0.64165002 -1.2679
-0.24708 -0.64086998 -1.2664
-0.24496 -0.64143997 -1.2675
-0.24285001 -0.64200002 -1.2686
-0.24083 -0.64301002 -1.2706
-0.23827 -0.64178002 -1.2681
-0.23603 -0.64188999 -1.2684
-0.23370001 -0.64155 -1.2677
-0.23125 -0.64076 -1.2661
-0.22913 -0.64130998 -1.2672
-0.22679999 -0.64096999 -1.2665
-0.22486 -0.64241999 -1.2694
-0.22253001 -0.64207 -1.2687
-0.22039001 -0.64261001 -1.2697999
-0.21797 -0.64181 -1.2682
-0.21592 -0.64279997 -1.2702
-0.21359 -0.64244998 -1.2695
-0.21135999 -0.64253998 -1.2696
-0.20912001 -0.64262998 -1.2697999
-0.20689 -0.64271998 -1.27
-0.20457 -0.64235002 -1.2693
-0.20232999 -0.64244002 -1.2694
-0.2001 -0.64252001 -1.2696
-0.19778 -0.64214998 -1.2689
-0.19547001 -0.64178002 -1.2681
-0.19324 -0.64184999 -1.2683001
-0.19108 -0.64238 -1.2693
-0.18899 -0.64335001 -1.2713
-0.18661 -0.64252001 -1.2696
-0.18437 -0.64258999 -1.2697999
-0.18213999 -0.64266002 -1.2699
-0.17990001 -0.64273 -1.27
-0.1776 -0.64234 -1.2693
-0.1753 -0.64195001 -1.2685
-0.17319 -0.64291 -1.2704
-0.17078 -0.64161998 -1.2678
-0.16848999 -0.64122999 -1.2671
-0.16626 -0.64128 -1.2672
-0.16407999 -0.64178997 -1.2682
-0.16195001 -0.64274001 -1.27
-0.15976 -0.64323997 -1.271
-0.15752 -0.64328998 -1.2711
-0.15524 -0.64288998 -1.2703
-0.15296 -0.64248002 -1.2695
-0.15068001 -0.64207 -1.2687
-0.14845 -0.64210999 -1.2688
-0.14621 -0.64214998 -1.2689
-0.14394 -0.64174002 -1.2681
-0.14182 -0.64313 -1.2708
-0.13958 -0.64317 -1.2709
-0.13731 -0.64275002 -1.2701
-0.13497999 -0.64142001 -1.2674
-0.13271999 -0.64099997 -1.2666
-0.13060001 -0.64283001 -1.2702
-0.12836 -0.64286 -1.2703
-0.12608001 -0.64197999 -1.2685
-0.12385 -0.64200002 -1.2686
-0.12161 -0.64201999 -1.2686
-0.11941 -0.64293998 -1.2704
-0.11719 -0.64341003 -1.2714
-0.11494 -0.64297998 -1.2704999
-0.11274 -0.64433998 -1.2732
-0.11044 -0.64209998 -1.2688
-0.10821 -0.64210999 -1.2688
-0.10597 -0.64165998 -1.2679
-0.10375 -0.64257002 -1.2697001
-0.10151 -0.64257997 -1.2697001
-0.099275 -0.64257997 -1.2697001
-0.097038999 -0.64257997 -1.2697001
-0.094802 -0.64302999 -1.2706
-0.092565 -0.64302999 -1.2706
-0.090337001 -0.64212 -1.2688
-0.088117003 -0.64121002 -1.267
-0.085878 -0.64165998 -1.2679
-0.083636001 -0.64209998 -1.2688
-0.081401996 -0.64209002 -1.2688
-0.079167999 -0.64207 -1.2687
-0.076934002 -0.64205998 -1.2687
-0.074630998 -0.64385003 -1.2722
-0.072370999 -0.64428002 -1.2731
-0.070148997 -0.64380997 -1.2722
-0.067909002 -0.64379001 -1.2721
-0.065815002 -0.64105999 -1.2667
-0.063481003 -0.64284003 -1.2702
-0.061271999 -0.64235997 -1.2693
-0.058977999 -0.64323002 -1.271
-0.056740001 -0.64319998 -1.271
-0.054535002 -0.64271998 -1.27
-0.052228998 -0.64358002 -1.2717
-0.049989 -0.64354998 -1.2716
-0.047788002 -0.64306003 -1.2707
-0.045711 -0.64121002 -1.267
-0.043396998 -0.64207 -1.2687
-0.041163001 -0.64203 -1.2686
-0.038929 -0.64199001 -1.2686
-0.036695998 -0.64194 -1.2685
-0.034463 -0.64188999 -1.2684
-0.032280002 -0.64139003 -1.2674
-0.029788001 -0.64358997 -1.2717
-0.027656 -0.64263999 -1.2697999
-0.025365001 -0.64302999 -1.2706
-0.023127001 -0.64297998 -1.2704999
-0.020949 -0.64247 -1.2695
-0.018714 -0.64240998 -1.2694
-0.016354 -0.64323997 -1.271
-0.01418 -0.64273 -1.27
-0.011944 -0.64266002 -1.2699
-0.0095718997 -0.64349997 -1.2715
-0.0073326998 -0.64342999 -1.2714
-0.0050937999 -0.64335001 -1.2713
-0.0030016 -0.64238 -1.2693
-0.00061684998 -0.64320999 -1.271
0.0016979 -0.64358002 -1.2717
0.0038588999 -0.64305001 -1.2707
0.0060963002 -0.64297003 -1.2704999
0.0084154001 -0.64333999 -1.2711999
0.010738 -0.6437 -1.2719001
0.012721 -0.64227003 -1.2691
0.014869 -0.64173001 -1.2681
0.017100999 -0.64164001 -1.2679
0.019332999 -0.64155 -1.2677
0.021563999 -0.64146 -1.2675
0.024359999 -0.64406002 -1.2727
0.026601 -0.64397001 -1.2725
0.028647 -0.64297003 -1.2704999
0.030587001 -0.64152002 -1.2676001
0.032818001 -0.64142001 -1.2674
0.035459999 -0.64310998 -1.2708
0.037698001 -0.64301002 -1.2706
0.040041 -0.64335001 -1.2711999
0.042064 -0.64234 -1.2693
0.044408001 -0.64267999 -1.2699
0.046533 -0.64212 -1.2688
0.049106002 -0.64335001 -1.2713
0.051344 -0.64323997 -1.271
0.053932 -0.64446002 -1.2733999
0.056056999 -0.64389998 -1.2723
0.058417998 -0.64421999 -1.273
0.060780998 -0.64455003 -1.2736
0.062776998 -0.64353001 -1.2716
0.064765997 -0.64249998 -1.2696
0.067001 -0.64236999 -1.2693
0.069363996 -0.64269 -1.2699
0.071860999 -0.64345998 -1.2715
0.074100003 -0.64332002 -1.2711999
0.076338999 -0.64319003 -1.2709
0.078712001 -0.64349997 -1.2715
0.080950998 -0.64336002 -1.2713
0.083607003 -0.64455998 -1.2736
0.085708998 -0.64397001 -1.2725
0.088092998 -0.64427 -1.2731
0.090190999 -0.64367002 -1.2719001
0.092575997 -0.64397001 -1.2725
0.094668999 -0.64337999 -1.2713
0.096908003 -0.64322001 -1.271
0.098843001 -0.64218003 -1.2689
0.10092 -0.64157999 -1.2677
0.10331 -0.64187002 -1.2683001
0.10617 -0.64349002 -1.2715
0.10857 -0.64377999 -1.2721
0.11097 -0.64406002 -1.2726001
0.11321 -0.64389002 -1.2723
0.11577 -0.64462 -1.2738
0.11785 -0.64399999 -1.2725
0.12009 -0.64383 -1.2722
0.12233 -0.64366001 -1.2719001
0.12474 -0.64393002 -1.2724
0.12698001 -0.64376003 -1.2721
0.12921999 -0.64358002 -1.2717
0.13199 -0.64472997 -1.274
0.13423 -0.64455003 -1.2736
0.1363 -0.64393002 -1.2724
0.13835999 -0.6433 -1.2711
0.14095999 -0.64399999 -1.2725
0.1432 -0.64380997 -1.2722
0.14544 -0.64362001 -1.2718
0.14843 -0.64520001 -1.2749
0.15068001 -0.64500999 -1.2745
0.15291999 -0.64481002 -1.2740999
0.15536 -0.64506 -1.2746
0.1578 -0.64529997 -1.2751
0.16004001 -0.6451 -1.2747
0.16209 -0.64445001 -1.2733999
0.16353001 -0.64248002 -1.2695
0.16617 -0.64315999 -1.2709
0.16881 -0.64383 -1.2722
0.17146 -0.64450997 -1.2735
0.17391001 -0.64473999 -1.274
0.17615999 -0.64451998 -1.2736
0.17818999 -0.64385998 -1.2723
0.18043 -0.64365 -1.2718
0.18223999 -0.64253998 -1.2697001
0.18491 -0.64319998 -1.271
0.18758 -0.64385998 -1.2723
0.19069 -0.64539999 -1.2753
0.19162001 -0.64253002 -1.2696
0.19474 -0.64406002 -1.2727
0.19676 -0.64339 -1.2713
0.19945 -0.64403999 -1.2726001
0.20191 -0.64424002 -1.273
0.20416 -0.64401001 -1.2726001
0.20640001 -0.64376998 -1.2721
0.20886999 -0.64397001 -1.2725
0.21134 -0.64416999 -1.2729
0.21382 -0.64436001 -1.2732
0.21653 -0.64499003 -1.2745
0.21926001 -0.64561999 -1.2757
0.22149999 -0.64537001 -1.2752
0.22351 -0.64468002 -1.2739
0.22575 -0.64442998 -1.2733999
0.22824 -0.64460999 -1.2737
0.23073 -0.64478999 -1.2740999
0.23322 -0.64497 -1.2744
0.23521 -0.64427 -1.2731
0.23746 -0.64401001 -1.2726001
0.2397 -0.64374 -1.272
0.24245 -0.64434999 -1.2732
0.24469 -0.64407998 -1.2727
0.24744999 -0.64468002 -1.2739
0.24943 -0.64398003 -1.2725
0.25272 -0.64545 -1.2754
0.25391001 -0.64342999 -1.2714
0.25641999 -0.64358002 -1.2717
0.25865 -0.64331001 -1.2711999
0.26143 -0.64389002 -1.2723
0.26420999 -0.64447999 -1.2735
0.26699999 -0.64506 -1.2746
0.26923999 -0.64477998 -1.2740999
0.27149001 -0.64449 -1.2735
0.27318001 -0.64332998 -1.2711999
0.27597001 -0.64389998 -1.2723
0.27932999 -0.64534003 -1.2752
0.28270999 -0.64678001 -1.278
0.28468001 -0.64604002 -1.2766
0.28692999 -0.64573997 -1.276
0.28802001 -0.64371002 -1.272
0.29084 -0.64427 -1.2731
0.29337001 -0.64438999 -1.2733001
0.29620001 -0.64494997 -1.2744
0.29844001 -0.64464003 -1.2738
0.30098 -0.64476001 -1.274
0.30382001 -0.64529997 -1.2751
0.30607 -0.64499003 -1.2745
0.30801001 -0.64424002 -1.273
0.31086001 -0.64477998 -1.2740999
0.31371 -0.64532 -1.2751
0.31595001 -0.64499003 -1.2745
0.31851 -0.6451 -1.2747
0.32075 -0.64477003 -1.2740999
0.32361999 -0.64529997 -1.2751
0.32493001 -0.64367998 -1.2719001
0.32716 -0.64333999 -1.2711999
0.33065999 -0.64472002 -1.274
0.33291 -0.64437997 -1.2733001
0.33546999 -0.64446998 -1.2735
0.33770999 -0.64412999 -1.2728
0.34028 -0.64420998 -1.273
0.34283999 -0.64429998 -1.2731
0.34507999 -0.64394999 -1.2724
0.34764999 -0.64402997 -1.2726001
0.35121 -0.64538002 -1.2753
0.35345 -0.64503002 -1.2746
0.35569999 -0.64467001 -1.2739
0.35793999 -0.64431 -1.2732
0.36118999 -0.64523 -1.275
0.36342999 -0.64486998 -1.2742
0.36601999 -0.64493001 -1.2744
0.36894 -0.64541 -1.2753
0.37084001 -0.64462 -1.2738
0.37309 -0.64424998 -1.273
0.37602001 -0.64472997 -1.274
0.37860999 -0.64477998 -1.2740999
0.38084999 -0.6444 -1.2733001
0.38308999 -0.64402002 -1.2726001
0.38569 -0.64407003 -1.2727
0.38934001 -0.64537001 -1.2753
0.39159 -0.64499003 -1.2745
0.39526001 -0.64629 -1.2771
0.39715001 -0.64547998 -1.2755001
0.40048 -0.64635998 -1.2772
0.40127999 -0.64428002 -1.2731
0.40425 -0.64472997 -1.274
0.40612999 -0.64390999 -1.2724
0.40836999 -0.64350998 -1.2716
0.41060001 -0.64310998 -1.2708
0.41431999 -0.64438999 -1.2733001
0.41655999 -0.64398998 -1.2725
0.41992 -0.64484 -1.2742
0.42179 -0.64401001 -1.2726001
0.42478001 -0.64444 -1.2733999
0.42703 -0.64402997 -1.2726001
0.43002999 -0.64445001 -1.2733999
0.43340999 -0.64528 -1.2751
0.43566 -0.64486003 -1.2742
0.43790001 -0.64444 -1.2733999
0.44014001 -0.64402002 -1.2726001
0.44316 -0.64442998 -1.2733999
0.44578999 -0.64442003 -1.2733999
0.44841999 -0.64441001 -1.2733001
0.45144999 -0.64481002 -1.2740999
0.45368999 -0.64437002 -1.2733001
0.45633 -0.64434999 -1.2732
0.45976001 -0.64516002 -1.2747999
0.4632 -0.64595997 -1.2764
0.46544999 -0.64551997 -1.2755001
0.4673 -0.64466 -1.2738
0.47035 -0.64503998 -1.2746
0.47299001 -0.64500999 -1.2745
0.47523999 -0.64455998 -1.2736
0.47747999 -0.64411002 -1.2727
0.48054001 -0.64447999 -1.2735
0.48361 -0.64484 -1.2742
0.48585001 -0.64437997 -1.2733001
0.48851001 -0.64433998 -1.2732
0.49200001 -0.6451 -1.2747
0.49423999 -0.64464003 -1.2738
0.49858001 -0.64622003 -1.2769001
0.50082999 -0.64574999 -1.276
0.50349998 -0.64569002 -1.2759
0.50616997 -0.64561999 -1.2757
0.50884002 -0.64556003 -1.2756
0.51108998 -0.64507997 -1.2747
0.51375997 -0.64500999 -1.2745
0.51687002 -0.64534003 -1.2752
0.52041 -0.64608002 -1.2766
0.52353001 -0.64639997 -1.2773
0.52665001 -0.64671999 -1.2779
0.52933002 -0.64664 -1.2776999
0.53070998 -0.64533001 -1.2752
0.53250998 -0.64442998 -1.2733999
0.5352 -0.64433998 -1.2732
0.54009998 -0.64626998 -1.277
0.54234999 -0.64577001 -1.276
0.54504001 -0.64567 -1.2758
0.54817998 -0.64596999 -1.2764
0.55088001 -0.64586002 -1.2762001
0.55312997 -0.64534998 -1.2752
0.55581999 -0.64524001 -1.275
0.55897999 -0.64552999 -1.2756
0.56076998 -0.64460999 -1.2737
0.56392002 -0.64489001 -1.2743
0.56800002 -0.64598 -1.2764
0.57024997 -0.64545 -1.2754
0.57296002 -0.64532 -1.2751
0.57752001 -0.64679998 -1.2781
0.57931 -0.64586002 -1.2762001
0.58155 -0.64533001 -1.2752
0.58332998 -0.64438999 -1.2733001
0.58556998 -0.64385998 -1.2723
0.58921999 -0.64450997 -1.2735
0.59241003 -0.64477003 -1.2740999
0.59513003 -0.64462 -1.2738
0.59737003 -0.64407998 -1.2727
0.60057002 -0.64432001 -1.2732
0.60281003 -0.64376998 -1.2721
0.60841 -0.64599001 -1.2765
0.60969001 -0.64464003 -1.2738
0.61242002 -0.64447999 -1.2735
0.61514997 -0.64431 -1.2732
0.61884999 -0.64494002 -1.2744
0.62108999 -0.64437002 -1.2733001
0.62480003 -0.64499003 -1.2745
0.62998998 -0.64678001 -1.278
0.63371998 -0.64737999 -1.2792
0.63547999 -0.64640999 -1.2773
0.63722998 -0.64543998 -1.2754
0.63997 -0.64525002 -1.275
0.64371002 -0.64585 -1.2762001
0.64646 -0.64565003 -1.2758
0.64971 -0.64585 -1.2762001
0.65196002 -0.64525998 -1.275
0.65470999 -0.64506 -1.2746
0.65745997 -0.64485002 -1.2742
0.66021001 -0.64464998 -1.2738
0.66398001 -0.64521998 -1.2749
0.66672999 -0.64499998 -1.2745
0.67101997 -0.64595002 -1.2764
0.67430001 -0.64612001 -1.2767
0.67758 -0.64629 -1.2771
0.68085998 -0.64644998 -1.2774
0.68311 -0.64582998 -1.2762001
0.68536001 -0.64521998 -1.2749
0.68915999 -0.64576 -1.276
0.69401997 -0.64705998 -1.2786
0.69784999 -0.64758998 -1.2796
0.7001 -0.64696002 -1.2783999
0.70183003 -0.64595002 -1.2764
0.70406997 -0.64532 -1.2751
0.70897001 -0.64660001 -1.2776999
0.71333998 -0.64749998 -1.2794
0.71560001 -0.64686 -1.2782
0.71785003 -0.64622003 -1.2769001
0.72117001 -0.64634001 -1.2771
0.72342002 -0.64569002 -1.2759
0.72619998 -0.64542001 -1.2753
0.72845 -0.64477003 -1.2740999
0.73176998 -0.64488 -1.2743
0.73509997 -0.64499003 -1.2745
0.73843998 -0.64508998 -1.2747
0.74123001 -0.64480001 -1.2740999
0.74620998 -0.64603001 -1.2766
0.74900001 -0.64573997 -1.276
0.75344998 -0.64657998 -1.2776
0.75735998 -0.64704001 -1.2785
0.75961 -0.64636999 -1.2772
0.76130003 -0.64532 -1.2751
0.76354998 -0.64464003 -1.2738
0.76634997 -0.64433998 -1.2732
0.77026999 -0.64477998 -1.2740999
0.77419001 -0.64521998 -1.2749
0.77868998 -0.64602 -1.2765
0.78319001 -0.64682001 -1.2781
0.78657001 -0.64687002 -1.2782
0.78882003 -0.64617997 -1.2768
0.79106998 -0.64547998 -1.2755001
0.79729998 -0.64736998 -1.2792
0.80012 -0.64704001 -1.2785
-0.98958999 -0.64064002 -1.2689
-0.98164999 -0.63765001 -1.263
-0.97771001 -0.63722998 -1.2622
-0.97605997 -0.63828999 -1.2643
-0.97327 -0.63861001 -1.2649
-0.96991003 -0.63856 -1.2648
-0.96543002 -0.63775003 -1.2632
-0.96209002 -0.63769001 -1.2631
-0.95818001 -0.63725001 -1.2622
-0.93751001 -0.62559998 -1.2391
-0.94313997 -0.63148999 -1.2508
-0.94817001 -0.63703001 -1.2618001
-0.94872999 -0.63957 -1.2668
-0.94484001 -0.63911003 -1.2659
-0.94150001 -0.63902998 -1.2657
-0.93761998 -0.63856 -1.2648
-0.93484998 -0.63884997 -1.2654001
-0.93207002 -0.63913 -1.2659
-0.92765999 -0.63827002 -1.2642
-0.92435002 -0.63817 -1.2640001
-0.92104 -0.63805997 -1.2638
-0.91663998 -0.63718998 -1.2621
-0.85931998 -0.59915 -1.1867
-0.85724002 -0.59974998 -1.1878999
-0.90836 -0.63797998 -1.2636
-0.90775001 -0.63976002 -1.2672
-0.90445 -0.63963002 -1.2668999
-0.90008003 -0.63874 -1.2652
-0.89732999 -0.63898998 -1.2657
-0.89456999 -0.63924003 -1.2661
-0.8897 -0.63795 -1.2636
-0.88800001 -0.63896 -1.2656
-0.88472003 -0.63880998 -1.2653
-0.88145 -0.63866001 -1.265
-0.79614002 -0.57818002 -1.1452
-0.79363 -0.57833999 -1.1454999
-0.86593002 -0.63396001 -1.2557
-0.86786002 -0.63765001 -1.263
-0.86563998 -0.63824999 -1.2642
-0.86238998 -0.63808 -1.2639
-0.85861999 -0.63752002 -1.2627
-0.85640001 -0.63812 -1.2639
-0.85365999 -0.63832998 -1.2643
-0.85092998 -0.63854003 -1.2648
-0.84869999 -0.63913 -1.2659
-0.84495997 -0.63854998 -1.2648
-0.84223002 -0.63875002 -1.2652
-0.83748001 -0.63739002 -1.2625
-0.78711998 -0.60053998 -1.1895
-0.78303999 -0.59952003 -1.1875
-0.81237 -0.62467003 -1.2373
-0.81068999 -0.62563002 -1.2392
-0.80307001 -0.62187999 -1.2318
-0.79004002 -0.61382002 -1.2158
-0.78741997 -0.61396998 -1.2161
-0.78381002 -0.61333001 -1.2148
-0.78021997 -0.61268997 -1.2136
-0.77710998 -0.61243999 -1.2131
-0.77547997 -0.61337 -1.2149
-0.77188998 -0.61272001 -1.2136
-0.77170002 -0.61483002 -1.2178
-0.77100998 -0.61654001 -1.2212
-0.77415001 -0.62142003 -1.2309
-0.76529002 -0.61641002 -1.2209001
-0.76411003 -0.61773002 -1.2235
-0.76196003 -0.61825001 -1.2246
-0.75980997 -0.61878002 -1.2256
-0.75718999 -0.6189 -1.2259001
-0.75503999 -0.61941999 -1.2269
-0.75242001 -0.61953998 -1.2271
-0.75027001 -0.62005001 -1.2280999
-0.74765003 -0.62017 -1.2284
-0.74456 -0.61988002 -1.2278
-0.74379998 -0.62159002 -1.2312
-0.74717999 -0.62689 -1.2417001
-0.75235999 -0.63380003 -1.2553999
-0.75199002 -0.63591999 -1.2596
-0.75160003 -0.63804001 -1.2638
-0.74937999 -0.63854998 -1.2648
-0.74805999 -0.63986999 -1.2674
-0.74537998 -0.63998002 -1.2676001
-0.74179 -0.63928002 -1.2661999
-0.73821998 -0.63858002 -1.2648
-0.73644 -0.63947999 -1.2666
-0.73421001 -0.63998997 -1.2676001
-0.73198003 -0.64049 -1.2686
-0.72930002 -0.64058 -1.2688
-0.72706997 -0.64108002 -1.2697999
-0.72307003 -0.63994998 -1.2676001
-0.71952999 -0.63923001 -1.2661
-0.71599001 -0.63849998 -1.2647001
-0.71376002 -0.63898998 -1.2656
-0.71153003 -0.63946998 -1.2666
-0.71060002 -0.64117002 -1.27
-0.70621002 -0.63962001 -1.2668999
-0.70311999 -0.63928998 -1.2661999
-0.70090002 -0.63976002 -1.2672
-0.69780999 -0.63941997 -1.2665
-0.69474 -0.63907999 -1.2658
-0.69208997 -0.63914001 -1.2659
-0.68944001 -0.63919997 -1.2661
-0.68721002 -0.63966 -1.267
-0.68330997 -0.63849002 -1.2647001
-0.68107998 -0.63894999 -1.2656
-0.67885 -0.63940001 -1.2665
-0.67663002 -0.63985997 -1.2674
-0.67398 -0.63990998 -1.2675
-0.67093003 -0.63954002 -1.2667
-0.66829002 -0.63958001 -1.2668
-0.66646999 -0.64043999 -1.2685
-0.66424 -0.64087999 -1.2694
-0.66241002 -0.64174002 -1.2711
-0.65935999 -0.64135998 -1.2703
-0.65632999 -0.64096999 -1.2696
-0.65328997 -0.64059001 -1.2688
-0.64946997 -0.63937002 -1.2664
-0.64684999 -0.63938999 -1.2664
-0.64421999 -0.63941002 -1.2665
-0.64121002 -0.63901001 -1.2657
-0.63858998 -0.63902003 -1.2657
-0.63674998 -0.63985997 -1.2674
-0.63414001 -0.63986999 -1.2674
-0.63191003 -0.64029002 -1.2682
-0.62813997 -0.63905001 -1.2658
-0.62629002 -0.63988 -1.2674
-0.62405998 -0.64029002 -1.2682
-0.62107003 -0.63986999 -1.2674
-0.61694998 -0.63819999 -1.2641
-0.61471999 -0.63861001 -1.2649
-0.61137003 -0.63775998 -1.2632
-0.60878003 -0.63775003 -1.2632
-0.60655999 -0.63814998 -1.2640001
-0.60470003 -0.63897002 -1.2656
-0.60246998 -0.63936001 -1.2664
-0.59987998 -0.63933998 -1.2663
-0.59728998 -0.63932002 -1.2663
-0.59505999 -0.63971001 -1.2671
-0.59283 -0.6401 -1.2678
-0.58987999 -0.63964999 -1.267
-0.58765 -0.64003998 -1.2677
-0.58506 -0.63999999 -1.2676001
-0.58140999 -0.63870001 -1.2651
-0.57918 -0.63907999 -1.2658
-0.57660002 -0.63902998 -1.2657
-0.57507002 -0.64025003 -1.2682
-0.57213998 -0.63977998 -1.2672
-0.56990999 -0.64016002 -1.268
-0.56768 -0.64052999 -1.2687
-0.56476003 -0.64004999 -1.2678
-0.56081998 -0.6383 -1.2643
-0.55892998 -0.63909 -1.2658
-0.55637002 -0.63902998 -1.2657
-0.55379999 -0.63896 -1.2656
-0.55124003 -0.63889998 -1.2654999
-0.54868001 -0.63883001 -1.2653
-0.54777998 -0.64087999 -1.2694
-0.54389 -0.63911003 -1.2659
-0.54264998 -0.64073998 -1.2691
-0.53911 -0.63937998 -1.2664
-0.53656 -0.63929999 -1.2663
-0.53399998 -0.63922 -1.2661
-0.53178 -0.63957 -1.2668
-0.52955002 -0.63990998 -1.2675
-0.52732003 -0.64025003 -1.2681
-0.52477002 -0.64016002 -1.268
-0.52222002 -0.64006001 -1.2678
-0.51967001 -0.63997 -1.2676001
-0.51713002 -0.63986999 -1.2674
-0.51490003 -0.64020002 -1.2681
-0.51204997 -0.63967001 -1.267
-0.50919998 -0.63914001 -1.266
-0.50667 -0.63903999 -1.2657
-0.50414002 -0.63893002 -1.2654999
-0.50160998 -0.63881999 -1.2653
-0.49968001 -0.63957 -1.2668
-0.49775001 -0.64030999 -1.2683001
-0.49581999 -0.64105999 -1.2697001
-0.49298999 -0.64051002 -1.2687
-0.49076 -0.64082003 -1.2693
-0.48794001 -0.64026999 -1.2682
-0.48541999 -0.64014 -1.2679
-0.48289999 -0.64001 -1.2677
-0.47951999 -0.63858998 -1.2649
-0.47815001 -0.64019001 -1.268
-0.47562999 -0.64004999 -1.2678
-0.47255 -0.63905001 -1.2658
-0.47033 -0.63935 -1.2664
-0.46754 -0.63876998 -1.2652
-0.46614999 -0.64036 -1.2684
-0.46336001 -0.63979 -1.2672
-0.46168 -0.64094001 -1.2695
-0.4589 -0.64036 -1.2684
-0.45640001 -0.64020997 -1.2681
-0.45443001 -0.64093 -1.2695
-0.45140001 -0.63990003 -1.2675
-0.44890001 -0.63975 -1.2671
-0.44613999 -0.63915002 -1.266
-0.4447 -0.64073002 -1.2691
-0.44220999 -0.64056998 -1.2688
-0.43996999 -0.64083999 -1.2693
-0.43697 -0.63980001 -1.2673
-0.43474001 -0.64007002 -1.2678
-0.43200001 -0.63946003 -1.2666
-0.42952001 -0.63928998 -1.2661999
-0.42754 -0.63998002 -1.2676001
-0.42556 -0.64068002 -1.2690001
-0.42333001 -0.64094001 -1.2695
-0.4206 -0.64032 -1.2683001
-0.41837001 -0.64056998 -1.2688
-0.41613001 -0.64082998 -1.2693
-0.41365999 -0.64064002 -1.2689
-0.41119 -0.64045 -1.2685
-0.40847999 -0.63981998 -1.2673
-0.40649 -0.64050001 -1.2686
-0.40355 -0.63942999 -1.2665
-0.40202001 -0.64098001 -1.2696
-0.39886001 -0.63946998 -1.2666
-0.39754999 -0.64146 -1.2704999
-0.39441001 -0.63994002 -1.2675
-0.39263001 -0.64104998 -1.2697001
-0.38971999 -0.63997 -1.2676001
-0.38771001 -0.64063001 -1.2689
-0.38525999 -0.64042002 -1.2685
-0.38303 -0.64064997 -1.2689
-0.38058001 -0.64042997 -1.2685
-0.37812999 -0.64020997 -1.2681
-0.37632 -0.64131999 -1.2703
-0.37366 -0.64064997 -1.2689
-0.37143001 -0.64086998 -1.2694
-0.36919999 -0.64108998 -1.2697999
-0.36695999 -0.64130002 -1.2702
-0.36513001 -0.64239001 -1.2724
-0.36168 -0.63994998 -1.2676001
-0.35945001 -0.64016002 -1.268
-0.35721001 -0.64037001 -1.2684
-0.35518 -0.64100999 -1.2697001
-0.35255 -0.64033002 -1.2683001
-0.35012999 -0.64008999 -1.2678
-0.3477 -0.63985002 -1.2673
-0.34547001 -0.64003998 -1.2677
-0.34305 -0.63979 -1.2672
-0.34082001 -0.63998997 -1.2676001
-0.33859 -0.64017999 -1.268
-0.33691001 -0.64170003 -1.271
-0.33431 -0.64099997 -1.2696
-0.33243999 -0.64207 -1.2717
-0.33002001 -0.64181 -1.2711999
-0.32778001 -0.64199001 -1.2716
-0.32519001 -0.64129001 -1.2702
-0.32260999 -0.64058 -1.2688
-0.32003 -0.63986999 -1.2674
-0.31797001 -0.64047998 -1.2686
-0.31557 -0.64020997 -1.2681
-0.31334001 -0.64038002 -1.2684
-0.31094 -0.64011002 -1.2679
-0.30904001 -0.64117002 -1.27
-0.30680001 -0.64133 -1.2703
-0.30504999 -0.64283001 -1.2733001
-0.30265 -0.64254999 -1.2727
-0.30087 -0.64403999 -1.2757
-0.29769999 -0.64152998 -1.2707
-0.29592001 -0.64302999 -1.2736
-0.29306999 -0.64139998 -1.2704
-0.29099 -0.64200002 -1.2716
-0.28830001 -0.64081001 -1.2693
-0.28636 -0.64184999 -1.2713
-0.28413001 -0.64200002 -1.2716
-0.28189 -0.64214998 -1.2719001
-0.27922001 -0.64095002 -1.2695
-0.27684999 -0.64064997 -1.2689
-0.27462 -0.64078999 -1.2692
-0.27252001 -0.64138001 -1.2704
-0.27042001 -0.64196002 -1.2715
-0.26804999 -0.64165002 -1.2709
-0.26581001 -0.64178002 -1.2711999
-0.26344001 -0.64147002 -1.2706
-0.26120999 -0.64160001 -1.2708
-0.25883999 -0.64128 -1.2702
-0.25661001 -0.64139998 -1.2704
-0.25413001 -0.64063001 -1.2689
-0.25189999 -0.64076 -1.2692
-0.24966 -0.64087999 -1.2694
-0.24743 -0.64099997 -1.2696
-0.24518999 -0.64112002 -1.2699
-0.24330001 -0.64257002 -1.2727
-0.24106 -0.64269 -1.273
-0.23849 -0.64146 -1.2704999
-0.23614 -0.64112002 -1.2699
-0.23370001 -0.64033002 -1.2683001
-0.23157001 -0.64089 -1.2694
-0.22954001 -0.64188999 -1.2714
-0.2272 -0.64153999 -1.2707
-0.22506 -0.64209002 -1.2718
-0.22253001 -0.64085001 -1.2693
-0.22039001 -0.64139003 -1.2704
-0.21787 -0.64014 -1.2679
-0.21592 -0.64157999 -1.2708
-0.21349999 -0.64077997 -1.2692
-0.21145 -0.64177001 -1.2711999
-0.20895 -0.64051002 -1.2687
-0.20723 -0.64328998 -1.2742
-0.20457 -0.64112997 -1.2699
-0.20249 -0.64210999 -1.2718
-0.19993 -0.64039999 -1.2684
-0.19794001 -0.64183003 -1.2713
-0.19547001 -0.64055997 -1.2688
-0.19330999 -0.64108002 -1.2697999
-0.191 -0.64071 -1.2691
-0.18877 -0.64077997 -1.2692
-0.18653999 -0.64085001 -1.2693
-0.18437 -0.64137 -1.2704
-0.18213999 -0.64143997 -1.2704999
-0.17990001 -0.64151001 -1.2706
-0.17754 -0.64067 -1.2690001
-0.1753 -0.64073002 -1.2691
-0.17313001 -0.64124 -1.2701
-0.17095 -0.64174998 -1.2711
-0.16859999 -0.64091003 -1.2695
-0.16637 -0.64096999 -1.2696
-0.16398001 -0.63967001 -1.267
-0.162 -0.64196998 -1.2716
-0.15976 -0.64201999 -1.2717
-0.15752 -0.64207 -1.2718
-0.15524 -0.64166999 -1.271
-0.15296 -0.64126003 -1.2701
-0.15064 -0.64039999 -1.2685
-0.14845 -0.64090002 -1.2694
-0.14618 -0.64049 -1.2686
-0.14383 -0.63916999 -1.266
-0.14163999 -0.63966 -1.267
-0.13947999 -0.64059001 -1.2688
-0.13731 -0.64152998 -1.2707
-0.13504 -0.64111 -1.2697999
-0.13281 -0.64113998 -1.2699
-0.13067999 -0.64297003 -1.2735
-0.12841 -0.64253998 -1.2727
-0.12616999 -0.64256001 -1.2727
-0.12389 -0.64169002 -1.271
-0.12167 -0.64216 -1.2719001
-0.11947 -0.64308 -1.2737
-0.11724 -0.64354002 -1.2747
-0.11498 -0.64310998 -1.2738
-0.1127 -0.64177001 -1.2711999
-0.11043 -0.64042997 -1.2685
-0.10821 -0.64089 -1.2694
-0.10598 -0.64090002 -1.2694
-0.10375 -0.64179999 -1.2711999
-0.10151 -0.64181 -1.2711999
-0.099280998 -0.64270997 -1.273
-0.097039998 -0.64270997 -1.273
-0.094795004 -0.64361 -1.2747999
-0.092570998 -0.64091003 -1.2694
-0.090337001 -0.64090002 -1.2694
-0.088117003 -0.63999999 -1.2676001
-0.085868999 -0.64089 -1.2694
-0.083636001 -0.64087999 -1.2694
-0.081390001 -0.64131999 -1.2703
-0.079167999 -0.64085001 -1.2693
-0.076917998 -0.64129001 -1.2702
-0.074648 -0.64218003 -1.272
-0.072352 -0.64350998 -1.2746
-0.070129 -0.64304 -1.2737
-0.067909002 -0.64257002 -1.2727
-0.065692998 -0.64209002 -1.2718
-0.063401997 -0.64297003 -1.2735
-0.061188001 -0.64249003 -1.2726001
-0.058917999 -0.64291 -1.2733999
-0.056864999 -0.64017999 -1.268
-0.054435 -0.64284998 -1.2733001
-0.052228998 -0.64235997 -1.2723
-0.049952 -0.64278001 -1.2731
-0.047788002 -0.64183998 -1.2713
-0.045591 -0.64134997 -1.2703
-0.043313 -0.64175999 -1.2711
-0.041076001 -0.64170998 -1.271
-0.038839001 -0.64166999 -1.271
-0.036695998 -0.64072001 -1.2691
-0.034463 -0.64067 -1.2690001
-0.032078002 -0.64196998 -1.2716
-0.02984 -0.64191997 -1.2715
-0.027602 -0.64187002 -1.2714
-0.025365001 -0.64181 -1.2711999
-0.02307 -0.64221001 -1.272
-0.020772001 -0.6426 -1.2728
-0.018286999 -0.64433002 -1.2762001
-0.016164999 -0.64336997 -1.2743
-0.013922 -0.64331001 -1.2742
-0.01201 -0.64099002 -1.2696
-0.0096397996 -0.64182001 -1.2713
-0.0071931998 -0.64310002 -1.2738
-0.0048794001 -0.64348 -1.2745
-0.0027087999 -0.64296001 -1.2735
-0.00054189999 -0.64243001 -1.2725
0.0016979 -0.64235997 -1.2723
0.0039372998 -0.64227998 -1.2722
0.0061765001 -0.64219999 -1.272
0.0084154001 -0.64212 -1.2718
0.01057 -0.64157999 -1.2708
0.012977 -0.64240003 -1.2724
0.015304 -0.64275998 -1.2731
0.017367 -0.64177001 -1.2711999
0.019876 -0.64302999 -1.2736
0.022211 -0.64337999 -1.2744
0.024453999 -0.64328998 -1.2742
0.026601 -0.64274001 -1.2731
0.028647 -0.64174998 -1.2711
0.030884 -0.64165002 -1.2709
0.033121001 -0.64155 -1.2707
0.035459999 -0.64188999 -1.2714
0.037802 -0.64222997 -1.2721
0.039935 -0.64168 -1.271
0.042388 -0.64247 -1.2725
0.044627 -0.64235997 -1.2723
0.047201 -0.64358997 -1.2747999
0.049445 -0.64346999 -1.2745
0.051688999 -0.64336002 -1.2743
0.053699002 -0.64234 -1.2723
0.056175001 -0.64311999 -1.2738
0.058417998 -0.64300001 -1.2736
0.060658999 -0.64288002 -1.2733001
0.062900998 -0.64275002 -1.2731
0.065016001 -0.64218003 -1.272
0.067254998 -0.64205003 -1.2717
0.069622003 -0.64236999 -1.2723
0.072122 -0.64313 -1.2738
0.074629001 -0.64389002 -1.2753
0.076606996 -0.64286 -1.2733001
0.078847997 -0.64271998 -1.273
0.081225999 -0.64302999 -1.2736
0.083746001 -0.64377999 -1.2751
0.08585 -0.64319003 -1.274
0.088092998 -0.64305001 -1.2737
0.090622999 -0.64379001 -1.2752
0.092721999 -0.64319998 -1.274
0.094965003 -0.64305001 -1.2737
0.097355999 -0.64333999 -1.2743
0.099600002 -0.64319003 -1.274
0.10184 -0.64302999 -1.2737
0.10393 -0.64243001 -1.2725
0.10617 -0.64227003 -1.2721
0.10904 -0.64389002 -1.2754
0.11097 -0.64284003 -1.2733001
0.11353 -0.64355999 -1.2747
0.11561 -0.64295 -1.2735
0.11818 -0.64367002 -1.2749
0.12026 -0.64306003 -1.2737
0.12267 -0.64332998 -1.2742
0.12474 -0.64270997 -1.273
0.12681 -0.64209002 -1.2718
0.12905 -0.64191002 -1.2714
0.13164 -0.64262003 -1.2728
0.13440999 -0.64376998 -1.2751
0.1363 -0.64270002 -1.273
0.13908 -0.64385003 -1.2753
0.14114 -0.64322001 -1.274
0.14338 -0.64302999 -1.2737
0.14544 -0.64240003 -1.2724
0.14787 -0.64265001 -1.2729
0.1503 -0.64289999 -1.2733999
0.15311 -0.64402997 -1.2756
0.15497001 -0.64295 -1.2735
0.1578 -0.64407998 -1.2757
0.15926 -0.64210999 -1.2718
0.16209 -0.64323002 -1.274
0.16353001 -0.64126003 -1.2701
0.16656999 -0.64282 -1.2732
0.16881 -0.64261001 -1.2728
0.17126 -0.64284003 -1.2733001
0.17371 -0.64306998 -1.2737
0.17615999 -0.6433 -1.2742
0.17861 -0.64352 -1.2746
0.18085 -0.6433 -1.2742
0.18352 -0.64397001 -1.2755001
0.18598001 -0.64418 -1.2759
0.18822999 -0.64396 -1.2755001
0.19069 -0.64418 -1.2759
0.19272 -0.64350998 -1.2746
0.1954 -0.64415997 -1.2759
0.19743 -0.64349002 -1.2746
0.19967 -0.64326 -1.2740999
0.20169 -0.64257997 -1.2728
0.20416 -0.64279002 -1.2732
0.20663001 -0.64298999 -1.2736
0.20933001 -0.64362001 -1.2747999
0.21111 -0.64251 -1.2726001
0.21358 -0.64270002 -1.273
0.21606 -0.64288998 -1.2733999
0.21901999 -0.64396 -1.2755001
0.22174001 -0.64458001 -1.2767
0.22351 -0.64345998 -1.2745
0.22648001 -0.64451998 -1.2766
0.22848 -0.64381999 -1.2752
0.23097999 -0.64399999 -1.2756
0.23346999 -0.64418 -1.2759
0.23496 -0.64261001 -1.2728
0.23846 -0.64453 -1.2766
0.23995 -0.64296001 -1.2735
0.24321 -0.64444 -1.2764
0.24572 -0.64459997 -1.2768
0.24823 -0.64477003 -1.2771
0.25020999 -0.64406002 -1.2757
0.25246 -0.64379001 -1.2751
0.25549001 -0.64481002 -1.2772
0.25801 -0.64497 -1.2775
0.25972 -0.64381999 -1.2752
0.26197001 -0.64354002 -1.2747
0.26502001 -0.64455998 -1.2767
0.26754001 -0.64471 -1.277
0.26978999 -0.64442003 -1.2764
0.27230999 -0.64455998 -1.2767
0.27373001 -0.64297003 -1.2735
0.27709001 -0.64441001 -1.2764
0.27961999 -0.64455003 -1.2767
0.28242999 -0.64512002 -1.2778
0.28496 -0.64525002 -1.278
0.28720999 -0.64494997 -1.2774
0.28889 -0.64377999 -1.2751
0.29113001 -0.64348 -1.2745
0.29394999 -0.64402997 -1.2756
0.29620001 -0.64371997 -1.275
0.29903001 -0.64428002 -1.2761
0.30127999 -0.64396 -1.2755001
0.30351999 -0.64365 -1.2749
0.30607 -0.64376003 -1.2751
0.30831 -0.64345002 -1.2745
0.31086001 -0.64355999 -1.2747
0.31341001 -0.64366001 -1.2749
0.31595001 -0.64376998 -1.2751
0.31788999 -0.64301002 -1.2736
0.32012999 -0.64269 -1.273
0.32393 -0.64450002 -1.2766
0.32649001 -0.64459997 -1.2768
0.32778999 -0.64297998 -1.2735
0.33035001 -0.64306998 -1.2737
