# .PCD v0.7 - Point Cloud Data file format
VERSION 0.7
FIELDS x y z
SIZE 4 4 4
TYPE F F F
COUNT 1 1 1
WIDTH 1571
HEIGHT 1
VIEWPOINT 0 0 0 1 0 0 0
POINTS 1571
DATA ascii
-0.27074999 -0.56480002 -1.4081
-0.26835001 -0.56492001 -1.4084001
-0.26644 -0.56650001 -1.4123
-0.26391 -0.56624001 -1.4117
-0.26126999 -0.56560999 -1.4101
-0.25874999 -0.56535 -1.4094
-0.25600001 -0.56434 -1.4069
-0.25382999 -0.56519002 -1.409
-0.25143 -0.56528997 -1.4093
-0.24902 -0.56538999 -1.4095
-0.24641 -0.56474 -1.4079
-0.2439 -0.56446999 -1.4073
-0.2414 -0.56419998 -1.4066
-0.23899999 -0.56428999 -1.4068
-0.23639999 -0.56364 -1.4052
-0.2342 -0.56446999 -1.4072
-0.2318 -0.56456 -1.4075
-0.22940999 -0.56463999 -1.4076999
-0.22691 -0.56436002 -1.4069999
-0.22461 -0.56480998 -1.4081
-0.22239 -0.56563997 -1.4102
-0.21980999 -0.56497997 -1.4085
-0.21723001 -0.56431001 -1.4069
-0.21475001 -0.56401998 -1.4061
-0.21243 -0.56446999 -1.4072
-0.21012001 -0.56490999 -1.4084001
-0.2078 -0.56536001 -1.4095
-0.20532 -0.56506002 -1.4087
-0.20284 -0.56475002 -1.408
-0.20044 -0.56481999 -1.4081
-0.19825999 -0.56599998 -1.4111
-0.19571 -0.56532001 -1.4094
-0.19330999 -0.56538999 -1.4095
-0.1909 -0.56545001 -1.4097
-0.18843 -0.56514001 -1.4089
-0.1859 -0.56445003 -1.4072
-0.18344 -0.56414002 -1.4064
-0.18110999 -0.56457001 -1.4075
-0.17877001 -0.56498998 -1.4086
-0.17625 -0.5643 -1.4068
-0.17391001 -0.56471997 -1.4079
-0.17135 -0.56366003 -1.4052
-0.16906001 -0.56445003 -1.4072
-0.16666 -0.56449002 -1.4073
-0.16436 -0.56528002 -1.4093
-0.16191 -0.56494999 -1.4085
-0.1596 -0.56573999 -1.4104
-0.15719 -0.56577998 -1.4105
-0.15479 -0.56581998 -1.4105999
-0.15238 -0.56585002 -1.4107
-0.14994 -0.56551999 -1.4099
-0.14757 -0.56592 -1.4109
-0.14512999 -0.56558001 -1.41
-0.1428 -0.56636 -1.4119999
-0.14033 -0.56563997 -1.4102
-0.13792001 -0.56567001 -1.4102
-0.13546 -0.56494999 -1.4085
-0.13293 -0.56310999 -1.4039
-0.13064 -0.56462997 -1.4076
-0.12820999 -0.56427997 -1.4068
-0.12588 -0.56541002 -1.4096
-0.12348 -0.56542999 -1.4096
-0.12107 -0.56545001 -1.4097
-0.11867 -0.56546003 -1.4097
-0.11627 -0.56546998 -1.4098001
-0.11387 -0.56549001 -1.4098001
-0.11147 -0.56586999 -1.4107
-0.10907 -0.56588 -1.4108
-0.10666 -0.56550997 -1.4098001
-0.10425 -0.56551999 -1.4099
-0.10184 -0.56478 -1.408
-0.099445999 -0.56551999 -1.4099
-0.097042002 -0.56515002 -1.409
-0.094641 -0.56515002 -1.4089
-0.092235997 -0.56551999 -1.4099
-0.089827001 -0.56589001 -1.4108
-0.087421998 -0.56588 -1.4108
-0.085026003 -0.56550002 -1.4098001
-0.082633004 -0.56511998 -1.4089
-0.080219999 -0.56549001 -1.4098001
-0.077775002 -0.56659001 -1.4125
-0.075365998 -0.56658 -1.4125
-0.072958 -0.56655997 -1.4125
-0.070588 -0.56580001 -1.4105999
-0.068184003 -0.56577998 -1.4105
-0.065779001 -0.56576002 -1.4105
-0.063350998 -0.56612003 -1.4114
-0.060918 -0.56647003 -1.4122
-0.058538999 -0.56607002 -1.4112
-0.056072999 -0.56678998 -1.413
-0.053663999 -0.56676 -1.413
-0.051288001 -0.56636 -1.4119999
-0.048985999 -0.56520998 -1.4091001
-0.046620999 -0.56480998 -1.4081
-0.044181999 -0.56515002 -1.4089
-0.041820999 -0.56474 -1.4079
-0.039379999 -0.56506997 -1.4088
-0.037021998 -0.56466001 -1.4076999
-0.034623001 -0.56462997 -1.4076
-0.032224 -0.56458002 -1.4075
-0.029580999 -0.56639999 -1.4121
-0.027073 -0.56709999 -1.4138
-0.024661999 -0.56704998 -1.4137
-0.022306001 -0.56663001 -1.4126
-0.019897001 -0.56658 -1.4125
-0.017374 -0.56727999 -1.4141999
-0.014903 -0.56760001 -1.415
-0.01249 -0.56753999 -1.4148999
-0.010329 -0.56599998 -1.4111
-0.0079233004 -0.56594002 -1.4109
-0.0055181999 -0.56588 -1.4108
-0.0030453 -0.56620002 -1.4116
-0.00063900999 -0.56612998 -1.4114
0.0016955 -0.56569999 -1.4103
0.0040262998 -0.56525999 -1.4092
0.0063533001 -0.56481999 -1.4081
0.0088299001 -0.56513 -1.4089
0.011388 -0.56580001 -1.4105999
0.013873 -0.5661 -1.4112999
0.016197 -0.56566 -1.4102
0.0186 -0.56558001 -1.41
0.021004001 -0.56550997 -1.4098001
0.023494 -0.56580001 -1.4105999
0.026164999 -0.56682998 -1.4131
0.028484 -0.56638002 -1.4119999
0.030982999 -0.56667 -1.4127001
0.033109002 -0.56546998 -1.4098001
0.035608001 -0.56576002 -1.4105
0.038012002 -0.56567001 -1.4102
0.040514998 -0.56594998 -1.411
0.043021999 -0.56623 -1.4116
0.045221999 -0.5654 -1.4096
0.047729999 -0.56568003 -1.4103
0.050239999 -0.56594998 -1.411
0.052969001 -0.56696999 -1.4135
0.055488002 -0.56724 -1.4141999
0.057788 -0.56677002 -1.413
0.060084 -0.56629997 -1.4118
0.062490001 -0.56620002 -1.4116
0.065012999 -0.56646001 -1.4122
0.067420997 -0.56636 -1.4119999
0.069828004 -0.56625003 -1.4117
0.071989998 -0.5654 -1.4096
0.074268997 -0.56492001 -1.4084001
0.076794997 -0.56518 -1.409
0.079449996 -0.56580001 -1.4105999
0.081854999 -0.56568998 -1.4103
0.084518999 -0.56630999 -1.4118
0.087191001 -0.56693 -1.4134001
0.089599997 -0.56681001 -1.4131
0.092280999 -0.56742001 -1.4146
0.094554998 -0.56693 -1.4134001
0.096826002 -0.56643999 -1.4122
0.099233001 -0.56630999 -1.4118
0.10178 -0.56655002 -1.4124
0.10405 -0.56604999 -1.4112
0.10631 -0.56555003 -1.4099
0.10856 -0.56505001 -1.4087
0.11141 -0.56602001 -1.4111
0.11382 -0.56588 -1.4108
0.11653 -0.56647998 -1.4123
0.11909 -0.56671 -1.4128
0.12165 -0.56694001 -1.4134001
0.12406 -0.56678998 -1.413
0.12662999 -0.56702 -1.4136
0.12904 -0.56686997 -1.4132
0.13145 -0.56672001 -1.4129
0.13402 -0.56694001 -1.4134001
0.13627 -0.56642002 -1.4121
0.13901 -0.56699997 -1.4136
0.14176001 -0.56757998 -1.415
0.14435001 -0.56779999 -1.4155
0.14692999 -0.56800002 -1.4161
0.14935 -0.56783998 -1.4157
0.15141 -0.56695002 -1.4134001
0.15381999 -0.56678998 -1.413
0.15605 -0.56625998 -1.4117
0.15863 -0.56646001 -1.4122
0.16086 -0.56593001 -1.4109
0.16308001 -0.56538999 -1.4096
0.16604 -0.56632 -1.4119
0.16845 -0.56615001 -1.4114
0.17124 -0.56671 -1.4128
0.17364 -0.56652999 -1.4124
0.17625 -0.56672001 -1.4129
0.17924 -0.56764001 -1.4151
0.18165 -0.56746 -1.4147
0.18407001 -0.56726998 -1.4141999
0.18648 -0.56708997 -1.4138
0.18909 -0.56726998 -1.4141999
0.19171 -0.56744999 -1.4147
0.19453 -0.56799001 -1.416
0.19674 -0.56743002 -1.4146
0.19915 -0.56724 -1.4141999
0.20156001 -0.56704998 -1.4137
0.2044 -0.56757998 -1.415
0.20637999 -0.56665999 -1.4127001
0.20922001 -0.56718999 -1.414
0.21163 -0.56699002 -1.4135
0.21448 -0.56751001 -1.4148
0.21667001 -0.56695002 -1.4134001
0.2193 -0.56709999 -1.4138
0.22171 -0.56690001 -1.4133
0.22458 -0.56742001 -1.4146
0.22676 -0.56683999 -1.4132
0.22916999 -0.56663001 -1.4126
0.23158 -0.56642002 -1.4121
0.23422 -0.56656998 -1.4125
0.23733 -0.56743997 -1.4146
0.2395 -0.56686002 -1.4132
0.24214999 -0.56699997 -1.4136
0.2448 -0.56713998 -1.4139
0.24770001 -0.56764001 -1.4152
0.24889 -0.56560999 -1.4101
0.25178 -0.56611001 -1.4112999
0.25492999 -0.56695998 -1.4135
0.25808999 -0.56781 -1.4155999
0.26025 -0.56721997 -1.4141001
0.26291001 -0.56734997 -1.4144
0.26558 -0.56747001 -1.4147
0.26798999 -0.56724 -1.4141001
0.27039999 -0.56699997 -1.4136
0.27307001 -0.56712002 -1.4139
0.27599999 -0.56760001 -1.415
0.27840999 -0.56734997 -1.4144
0.28082001 -0.56711 -1.4138
0.28323001 -0.56686002 -1.4132
0.28564 -0.56660998 -1.4126
0.28832 -0.56672001 -1.4129
0.29100001 -0.56682998 -1.4131
0.29313999 -0.56621999 -1.4116
0.29582 -0.56632 -1.4119
0.2985 -0.56642997 -1.4121
0.30201 -0.56760001 -1.4151
0.30443001 -0.56734002 -1.4144
0.30739999 -0.56778997 -1.4155
0.31009001 -0.56788999 -1.4158
0.31251001 -0.56761998 -1.4151
0.31492001 -0.56734997 -1.4144
0.31733 -0.56708002 -1.4138
0.32032001 -0.56752998 -1.4148999
0.32302001 -0.56761003 -1.4151
0.32484999 -0.56663001 -1.4126
0.32754999 -0.56671 -1.4128
0.32995999 -0.56642997 -1.4121
0.33355999 -0.56756997 -1.415
0.33507001 -0.56623 -1.4116
0.33778 -0.56629997 -1.4118
0.34049001 -0.56637001 -1.4119999
0.34411001 -0.56751001 -1.4148
0.34591001 -0.56651002 -1.4123
0.34801 -0.56586999 -1.4107
0.35041001 -0.56558001 -1.41
0.35468 -0.56740999 -1.4146
0.35709 -0.56711 -1.4138
0.35982001 -0.56717002 -1.414
0.36254001 -0.56722999 -1.4141001
0.36526999 -0.56727999 -1.4143
0.368 -0.56733 -1.4144
0.37136999 -0.56809002 -1.4163001
0.37411001 -0.56813997 -1.4164
0.37652001 -0.56783003 -1.4155999
0.37860999 -0.56717002 -1.414
0.382 -0.56791002 -1.4158
0.38442001 -0.56760001 -1.4151
0.38683 -0.56729001 -1.4143
0.38924 -0.56696999 -1.4135
0.39232001 -0.56735998 -1.4145
0.39539999 -0.56774002 -1.4154
0.39815 -0.56777 -1.4155
0.40055999 -0.56744999 -1.4147
0.40298 -0.56712002 -1.4139
0.40606999 -0.5675 -1.4148
0.40917 -0.56787002 -1.4157
0.41124001 -0.56718999 -1.414
0.41365001 -0.56686002 -1.4132
0.41639999 -0.56687999 -1.4132
0.41951001 -0.56724 -1.4141999
0.42333001 -0.56830001 -1.4168
0.42645001 -0.56865001 -1.4177001
0.42851999 -0.56796998 -1.416
0.43129 -0.56796998 -1.416
0.43406001 -0.56796998 -1.416
0.43683001 -0.56797999 -1.416
0.43924999 -0.56762999 -1.4151
0.44202 -0.56762999 -1.4151
0.44442999 -0.56726998 -1.4141999
0.44793999 -0.56796002 -1.416
0.45109999 -0.56830001 -1.4168
0.45313999 -0.56760001 -1.415
0.45554999 -0.56724 -1.4141999
0.45908001 -0.56791002 -1.4158
0.46187001 -0.5679 -1.4158
0.46391001 -0.56718999 -1.414
0.46707001 -0.56751001 -1.4148
0.47024 -0.56783003 -1.4155999
0.47418001 -0.56884003 -1.4181
0.47622001 -0.56813002 -1.4164
0.47940001 -0.56844002 -1.4171
0.48142999 -0.56772 -1.4154
0.48462 -0.56803 -1.4161
0.48703 -0.56765002 -1.4152
0.48984 -0.56761003 -1.4151
0.49186 -0.56689 -1.4133
0.49465999 -0.56685001 -1.4132
0.49825001 -0.56748998 -1.4148
0.50265002 -0.56880999 -1.4181
0.50546998 -0.56875998 -1.4179
0.50787997 -0.56836998 -1.4170001
0.51029998 -0.56797999 -1.416
0.51312 -0.56792003 -1.4159
0.51552999 -0.56752002 -1.4148999
0.51956999 -0.56849003 -1.4173
0.52199 -0.56808001 -1.4163001
0.5244 -0.56768 -1.4153
0.52805001 -0.56829 -1.4168
0.53087997 -0.56822997 -1.4166
0.53371 -0.56816 -1.4164
0.53612 -0.56774998 -1.4154
0.53978997 -0.56835002 -1.4169
0.54262 -0.56827003 -1.4167
0.54504001 -0.56786001 -1.4157
0.54702997 -0.56709999 -1.4138
0.55028999 -0.56734997 -1.4144
0.55355 -0.56761003 -1.4151
0.55681998 -0.56786001 -1.4157
0.55966002 -0.56777 -1.4155
0.56335998 -0.56835002 -1.4169
0.56405002 -0.56658 -1.4125
0.56731999 -0.56682003 -1.4131
0.56972998 -0.56638002 -1.4119999
0.57388997 -0.56729001 -1.4143
0.57673001 -0.56718999 -1.414
0.57914001 -0.56674999 -1.4129
0.58199 -0.56664002 -1.4127001
0.58617002 -0.56753999 -1.4148999
0.59035999 -0.56841999 -1.4171
0.59323001 -0.56831002 -1.4168
0.59609002 -0.56818998 -1.4165
0.59850001 -0.56774002 -1.4154
0.60136998 -0.56761998 -1.4151
0.60558999 -0.56849998 -1.4173
0.60891002 -0.56870002 -1.4177999
0.61179 -0.56857002 -1.4175
0.61374003 -0.56778002 -1.4155
0.61752999 -0.56831002 -1.4168
0.61995 -0.56784999 -1.4157
0.62235999 -0.56738001 -1.4145
0.6257 -0.56756997 -1.415
0.62857997 -0.56743002 -1.4146
0.63099003 -0.56695998 -1.4135
0.63385999 -0.56681001 -1.4131
0.63909 -0.56831002 -1.4168
0.64339 -0.56914002 -1.4189
0.64581001 -0.56866002 -1.4177001
0.64775002 -0.56784999 -1.4157
0.65158999 -0.56835002 -1.4169
0.65495998 -0.56852001 -1.4173
0.65833002 -0.56867999 -1.4177001
0.66219002 -0.56917 -1.419
0.66557002 -0.56932998 -1.4194
0.66895998 -0.56948 -1.4197
0.67137998 -0.56897998 -1.4184999
0.67429 -0.56880999 -1.4181
0.67719001 -0.56862998 -1.4176
0.67961001 -0.56813002 -1.4164
0.68348998 -0.5686 -1.4175
0.6864 -0.56840998 -1.4171
0.68931001 -0.56822997 -1.4166
0.69221997 -0.56804001 -1.4161
0.69563001 -0.56817001 -1.4165
0.70003998 -0.56895 -1.4184
0.70446002 -0.56971997 -1.4203
0.70537001 -0.56822997 -1.4166
0.70929998 -0.56866997 -1.4177001
0.71070999 -0.5675 -1.4148
0.71614999 -0.56891 -1.4183
0.71959001 -0.56901997 -1.4186
0.72250998 -0.56880999 -1.4181
0.72747999 -0.56987 -1.4207
0.72887999 -0.56870002 -1.4177999
0.73233002 -0.56879997 -1.418
0.73732001 -0.56985998 -1.4207
0.73922998 -0.56898999 -1.4184999
0.74112999 -0.56813002 -1.4164
0.74353999 -0.56759 -1.415
0.74646997 -0.56735998 -1.4144
0.74993002 -0.56743997 -1.4147
0.75443 -0.56816 -1.4165
0.75843 -0.56856 -1.4174
0.76190001 -0.56862998 -1.4176
0.76537001 -0.56871003 -1.4177999
0.76779002 -0.56814998 -1.4164
0.77020001 -0.56757998 -1.415
0.77473998 -0.56827998 -1.4167
0.77929997 -0.56897002 -1.4184999
0.78224999 -0.56871003 -1.4177999
0.7852 -0.56845999 -1.4172
0.78762001 -0.56787997 -1.4158
0.79110998 -0.56792998 -1.4159
0.79569 -0.56861001 -1.4176
0.80081999 -0.56958997 -1.42
0.80216002 -0.56838 -1.4170001
0.80457002 -0.56779999 -1.4155
0.80808002 -0.56783003 -1.4155999
0.81323999 -0.56879997 -1.418
0.81620997 -0.56852001 -1.4173
0.81917 -0.56822997 -1.4166
0.82435 -0.56919003 -1.419
0.82955003 -0.57014 -1.4214
0.83086002 -0.56892002 -1.4183
0.83328003 -0.56831002 -1.4168
0.83512998 -0.56739998 -1.4146
0.84034997 -0.56832999 -1.4169
0.84445 -0.56865001 -1.4177001
0.84798998 -0.56865001 -1.4177001
0.85096997 -0.56834 -1.4169
0.85395002 -0.56803 -1.4161
0.85693997 -0.56772 -1.4154
0.86049002 -0.56770998 -1.4153
0.86518002 -0.56831002 -1.4168
-1.052 -0.56107998 -1.4028
-1.0496 -0.56169999 -1.4044
-1.0443 -0.56079 -1.4021
-1.0397 -0.56018001 -1.4006
-1.0367 -0.56048 -1.4013
-1.0349 -0.5614 -1.4036
-1.0325 -0.56200999 -1.4051
-1.0301 -0.56260997 -1.4067
-1.0271 -0.56291002 -1.4074
-1.0214 -0.56165999 -1.4043
-1.0179 -0.56164002 -1.4042
-1.0138 -0.56130999 -1.4033999
-1.0087 -0.56036001 -1.401
-1.0057 -0.56063998 -1.4017
-1.0028 -0.56092 -1.4024
-0.99983001 -0.56120002 -1.4031
-0.99689001 -0.56146997 -1.4038
-0.99449998 -0.56206 -1.4053
-0.9921 -0.56264001 -1.4067
-0.98970997 -0.56322002 -1.4082
-0.98295999 -0.56129998 -1.4033999
-0.98057002 -0.56186998 -1.4048001
-0.97654998 -0.56151003 -1.4039
-0.97416002 -0.56208003 -1.4053
-0.97069001 -0.56202 -1.4052
-0.96882999 -0.56290001 -1.4074
-0.96269 -0.56125998 -1.4033
-0.96030003 -0.56181997 -1.4047
-0.95578003 -0.56111997 -1.4029
-0.90888 -0.53522998 -1.3382
-0.79457003 -0.46891001 -1.1724
-0.82213002 -0.48704001 -1.2177
-0.92308003 -0.54944003 -1.3737
-0.90711999 -0.54175001 -1.3545001
-0.90482002 -0.54227 -1.3558
-0.93169999 -0.56054997 -1.4015
-0.93138999 -0.56234998 -1.406
-0.92899001 -0.56288999 -1.4074
-0.92556 -0.56279999 -1.4071
-0.92212999 -0.56269997 -1.4069
-0.91870999 -0.56259 -1.4066
-0.91579998 -0.56281 -1.4071
-0.91136003 -0.56206 -1.4053
-0.90895998 -0.56259 -1.4066
-0.90605998 -0.56278998 -1.4071
-0.90366 -0.56331998 -1.4084001
-0.90025002 -0.5632 -1.4081
-0.89735001 -0.56339997 -1.4086
-0.89393997 -0.56326997 -1.4083
-0.88554001 -0.55993003 -1.3999
-0.77648002 -0.49155 -1.229
-0.77192998 -0.49037001 -1.226
-0.76591003 -0.48822999 -1.2207
-0.76582998 -0.48995 -1.225
-0.76673001 -0.49233001 -1.2309
-0.86677998 -0.56005001 -1.4003
-0.86635 -0.56185001 -1.4047
-0.86347002 -0.56202 -1.4052
-0.86107999 -0.56252003 -1.4064
-0.85868001 -0.56300998 -1.4076999
-0.85483003 -0.56252998 -1.4065
-0.85242999 -0.56301999 -1.4076999
-0.84618998 -0.56089997 -1.4024
-0.84332001 -0.56106001 -1.4028
-0.84092999 -0.56154001 -1.404
-0.83854002 -0.56203002 -1.4052
-0.83520001 -0.56185001 -1.4048001
-0.83139002 -0.56134999 -1.4035
-0.82994002 -0.56247997 -1.4062999
-0.82753998 -0.56295002 -1.4075
-0.82420999 -0.56277001 -1.4069999
-0.82086998 -0.56257999 -1.4066
-0.81708002 -0.56206 -1.4053
-0.81468999 -0.56252998 -1.4065
-0.81044 -0.56168002 -1.4043
-0.80804998 -0.56213999 -1.4055001
-0.80519998 -0.56226999 -1.4058
-0.80233997 -0.56239998 -1.4061
-0.79904002 -0.56219 -1.4056
-0.79346001 -0.56032997 -1.401
-0.77206999 -0.54686999 -1.3673
-0.76840001 -0.54631001 -1.3659
-0.76652998 -0.54707998 -1.3678
-0.77986997 -0.55913001 -1.398
-0.77749002 -0.55958003 -1.3990999
-0.77556002 -0.56035 -1.401
-0.77227998 -0.56011999 -1.4004
-0.77210999 -0.56222999 -1.4057
-0.77015001 -0.56300002 -1.4076
-0.76687002 -0.56276 -1.4069999
-0.76229 -0.56152999 -1.4039
-0.75902998 -0.56129003 -1.4033
-0.75620002 -0.56138003 -1.4036
-0.75295001 -0.56114 -1.403
-0.75055999 -0.56155998 -1.404
-0.74730998 -0.56132001 -1.4033999
-0.73764998 -0.55602998 -1.3902
-0.71824998 -0.54299998 -1.3576
-0.71254998 -0.54070997 -1.3519
-0.71025997 -0.54110998 -1.3529
-0.70796001 -0.54150999 -1.3539
-0.70567 -0.54189998 -1.3549
-0.70253003 -0.54162002 -1.3542
-0.70023 -0.54202002 -1.3552001
-0.69752002 -0.54206997 -1.3552999
-0.69439 -0.54177999 -1.3546
-0.69168001 -0.54183 -1.3547
-0.68937999 -0.54220998 -1.3557
-0.68748999 -0.54293001 -1.3575
-0.68436998 -0.54263997 -1.3566999
-0.68247002 -0.54335999 -1.3585
-0.68015999 -0.54373997 -1.3595001
-0.67786002 -0.54411 -1.3604
-0.67755002 -0.54619002 -1.3656
-0.67721999 -0.54826999 -1.3708
-0.67688 -0.55035001 -1.376
-0.67769998 -0.55344999 -1.3838
-0.67732 -0.55553001 -1.3890001
-0.67769998 -0.55830002 -1.3959
-0.67883998 -0.56174999 -1.4045
-0.67723 -0.56281 -1.4072
-0.67483002 -0.56318998 -1.4081
-0.67127001 -0.56252998 -1.4065
-0.66733998 -0.56152999 -1.404
-0.66532999 -0.56225002 -1.4057
-0.66330999 -0.56296003 -1.4075
-0.66091001 -0.56331998 -1.4084001
-0.65814 -0.56334001 -1.4085
-0.65498 -0.56301999 -1.4076999
-0.65221 -0.56304002 -1.4076999
-0.64906001 -0.56270999 -1.4069
-0.64517999 -0.56168002 -1.4043
-0.64241999 -0.56168997 -1.4044
-0.64003003 -0.56204998 -1.4052
-0.63726997 -0.56204998 -1.4053
-0.63524002 -0.56274998 -1.4069999
-0.63138998 -0.56171 -1.4044
-0.62898999 -0.56206 -1.4053
-0.62480003 -0.56067002 -1.4018
-0.62241 -0.56101 -1.4026999
-0.62072998 -0.56203997 -1.4052
-0.61798 -0.56203002 -1.4052
-0.61523998 -0.56202 -1.4052
-0.61142999 -0.56097001 -1.4025
-0.60869998 -0.56094998 -1.4025
-0.60631001 -0.56128001 -1.4033
-0.60461003 -0.56230998 -1.4059
-0.60187 -0.56229001 -1.4059
-0.59947002 -0.56261998 -1.4067
-0.59707999 -0.56294 -1.4075
-0.59502 -0.56361002 -1.4092
-0.59227997 -0.56358999 -1.4091001
-0.58853 -0.56251001 -1.4064
-0.58579999 -0.56247997 -1.4062999
-0.58273 -0.56208998 -1.4054
-0.58067 -0.56276 -1.4069999
-0.57893002 -0.56377 -1.4096
-0.57554001 -0.56303 -1.4076999
-0.57282001 -0.56299001 -1.4076
-0.56944001 -0.56224 -1.4057
-0.56704998 -0.56255001 -1.4065
-0.56465 -0.56285 -1.4073
-0.56225002 -0.56314999 -1.408
-0.5589 -0.56239998 -1.4061
-0.55618 -0.56234998 -1.406
-0.55378997 -0.56264001 -1.4067
-0.55138999 -0.56294 -1.4075
-0.54899001 -0.56322998 -1.4082
-0.54597002 -0.56282002 -1.4072
-0.54325998 -0.56274998 -1.4069999
-0.54056001 -0.56269002 -1.4069
-0.53785998 -0.56261998 -1.4067
-0.53546 -0.56291002 -1.4074
-0.53276002 -0.56283998 -1.4072
-0.53035998 -0.56312001 -1.4079
-0.52736002 -0.56269002 -1.4069
-0.52467 -0.56260997 -1.4067
-0.52138001 -0.56182998 -1.4047
-0.51928002 -0.56246001 -1.4062999
-0.51718003 -0.56308001 -1.4078
-0.51507002 -0.56370997 -1.4094
-0.51209003 -0.56326997 -1.4083
-0.50940001 -0.56318003 -1.4081
-0.50672001 -0.56309003 -1.4079
-0.50375003 -0.56265002 -1.4067
-0.50164002 -0.56326002 -1.4083
-0.49895999 -0.56317002 -1.4081
-0.49656001 -0.56343001 -1.4087
-0.49333 -0.56261998 -1.4067
-0.49065 -0.56252003 -1.4064
-0.48879999 -0.56348002 -1.4088
-0.48668 -0.56410003 -1.4104
-0.48427001 -0.56435001 -1.411
-0.48106 -0.56352001 -1.4089
-0.47839001 -0.56340998 -1.4087
-0.47545999 -0.56294 -1.4075
-0.47306001 -0.56318998 -1.4081
-0.46988001 -0.56235999 -1.406
-0.46748 -0.56260002 -1.4066
-0.46482 -0.56247997 -1.4062999
-0.46269 -0.56308001 -1.4078
-0.46054 -0.56366998 -1.4093
-0.45789 -0.56355 -1.409
-0.45523 -0.56342 -1.4087
-0.45258 -0.56329 -1.4084001
-0.44993001 -0.56316 -1.408
-0.44753 -0.56339002 -1.4086
-0.44488999 -0.56326002 -1.4083
-0.44249001 -0.56348002 -1.4088
-0.43959999 -0.56298 -1.4076
-0.43697 -0.56283998 -1.4072
-0.43432999 -0.56269997 -1.4069
-0.43169001 -0.56256002 -1.4065
-0.42952999 -0.56313998 -1.408
-0.4269 -0.56299001 -1.4076
-0.42473 -0.56357002 -1.409
-0.42256001 -0.56414002 -1.4105
-0.41947001 -0.56326002 -1.4083
-0.41707 -0.56347001 -1.4088
-0.41466999 -0.56367999 -1.4093
-0.41294 -0.56497002 -1.4126
-0.41031 -0.56480998 -1.4122
-0.40746999 -0.56428999 -1.4109
-0.40461999 -0.56377 -1.4095
-0.40222001 -0.56396002 -1.41
-0.39939001 -0.56344002 -1.4087
-0.39719999 -0.56399 -1.4101
-0.39416999 -0.56309998 -1.4079
-0.39177001 -0.56329 -1.4084001
-0.38916001 -0.56312001 -1.4079
-0.38738 -0.56440002 -1.4111
-0.38477001 -0.56422001 -1.4107
-0.38216001 -0.56404001 -1.4102
-0.37935999 -0.56349999 -1.4089
-0.37676001 -0.56331998 -1.4084001
-0.37436 -0.56349999 -1.4089
-0.37136999 -0.56257999 -1.4066
-0.36994001 -0.56458002 -1.4116
-0.36677 -0.56330001 -1.4084001
-0.36475 -0.56419998 -1.4105999
-0.36197001 -0.56365001 -1.4092
-0.35918999 -0.56309003 -1.4078
-0.35679001 -0.56326002 -1.4083
-0.35439 -0.56343001 -1.4087
-0.35216999 -0.56396002 -1.41
-0.34941 -0.56339002 -1.4086
-0.34718999 -0.56392002 -1.4099
-0.34461001 -0.56370997 -1.4094
-0.34237999 -0.56423998 -1.4107
-0.33963001 -0.56366998 -1.4093
-0.33723 -0.56382 -1.4097
-0.33533999 -0.56507999 -1.4128
-0.33241999 -0.56413001 -1.4105
-0.32984999 -0.56392002 -1.4099
-0.32679 -0.56260002 -1.4066
-0.32438999 -0.56274998 -1.4069999
-0.32199001 -0.56290001 -1.4074
-0.31992 -0.56378001 -1.4096
-0.31736001 -0.56355 -1.409
-0.31496 -0.56369001 -1.4094
-0.31255001 -0.56383997 -1.4097
-0.30985001 -0.56323999 -1.4082
-0.30745 -0.56338 -1.4086
-0.30535001 -0.56424999 -1.4107
-0.30294001 -0.56437999 -1.4111
-0.30054 -0.56450999 -1.4114
-0.29798999 -0.56427997 -1.4108
-0.29558 -0.56440997 -1.4111
-0.29317999 -0.56454003 -1.4115
-0.29049 -0.56392998 -1.4099
-0.28782001 -0.56331998 -1.4084001
-0.28542 -0.56344002 -1.4087
-0.28301999 -0.56356001 -1.409
-0.28075001 -0.56405002 -1.4102
-0.27834001 -0.56417 -1.4105
-0.27594 -0.56427997 -1.4108
-0.27315 -0.56329 -1.4084001
-0.27101001 -0.56414002 -1.4105
-0.26885 -0.56498998 -1.4126
-0.26631999 -0.56472999 -1.4119999
-0.26391 -0.56484002 -1.4122
-0.26102999 -0.56348002 -1.4088
-0.25863001 -0.56357998 -1.4091001
-0.25623 -0.56367999 -1.4093
-0.25406 -0.56453001 -1.4114
-0.25165001 -0.56462997 -1.4117
-0.24902 -0.56399 -1.4101
-0.24641 -0.56335002 -1.4085
-0.24411 -0.56380999 -1.4097
-0.24171001 -0.56391001 -1.4099
-0.23941 -0.56436998 -1.4111
-0.2368 -0.56371999 -1.4094
-0.23450001 -0.56418002 -1.4105999
-0.23219 -0.56463999 -1.4117
-0.22969 -0.56436002 -1.411
-0.22719 -0.56406999 -1.4103
-0.2247 -0.56379002 -1.4096
-0.22221 -0.56349999 -1.4089
-0.21972001 -0.56321001 -1.4081
-0.21723001 -0.56291997 -1.4074
-0.21475001 -0.56261998 -1.4067
-0.21252 -0.56344002 -1.4087
-0.2102 -0.56388003 -1.4098001
-0.20764001 -0.56322002 -1.4082
-0.20524 -0.56329 -1.4083
-0.20291001 -0.56373 -1.4094
-0.20059 -0.56415999 -1.4105
-0.19825999 -0.56459999 -1.4116
-0.19592001 -0.56503999 -1.4127001
-0.19351999 -0.56510001 -1.4129
-0.19097 -0.56441998 -1.4112
-0.18843 -0.56374002 -1.4095
-0.18610001 -0.56417 -1.4105999
-0.18363 -0.56386 -1.4098001
-0.18122999 -0.56391001 -1.4099
-0.17883 -0.56396002 -1.41
-0.17648 -0.56439 -1.4111
-0.17408 -0.56444001 -1.4112
-0.17151 -0.56338 -1.4086
-0.16926999 -0.56454003 -1.4115
-0.16671 -0.56347001 -1.4088
-0.16446 -0.56462997 -1.4117
-0.162 -0.5643 -1.4109
-0.15968999 -0.56507999 -1.4128
-0.15728 -0.56511998 -1.4129
-0.15479 -0.56441998 -1.4112
-0.15238 -0.56445003 -1.4112999
-0.15002 -0.56485999 -1.4123
-0.14760999 -0.56489003 -1.4124
-0.14503001 -0.56307 -1.4078
-0.14263 -0.56309998 -1.4079
-0.14033 -0.56423998 -1.4107
-0.13792001 -0.56427002 -1.4108
-0.13552 -0.5643 -1.4109
-0.13311 -0.56432003 -1.4109
-0.13071001 -0.56434 -1.411
-0.12830999 -0.56436002 -1.411
-0.12588 -0.56401002 -1.4102
-0.12348 -0.56402999 -1.4102
-0.12107 -0.56405002 -1.4102
-0.11867 -0.56405997 -1.4103
-0.11627 -0.56406999 -1.4103
-0.11384 -0.56334001 -1.4085
-0.11145 -0.56371999 -1.4094
-0.10905 -0.56373 -1.4095
-0.10666 -0.56448001 -1.4112999
-0.10426 -0.56485999 -1.4123
-0.10186 -0.56485999 -1.4123
-0.099448003 -0.56449002 -1.4114
-0.097042002 -0.56411999 -1.4104
-0.094636999 -0.56449002 -1.4114
-0.092231996 -0.56449002 -1.4114
-0.089827001 -0.56449002 -1.4112999
-0.087429002 -0.56410998 -1.4104
-0.085009001 -0.56484997 -1.4122
-0.082602002 -0.56484002 -1.4122
-0.080170996 -0.56557 -1.4141001
-0.077761002 -0.56555998 -1.414
-0.075351 -0.56555003 -1.414
-0.072958 -0.56515998 -1.413
-0.070588 -0.56440002 -1.4111
-0.068184003 -0.56437999 -1.4111
-0.065756999 -0.56474 -1.4119999
-0.063326001 -0.56509 -1.4128
-0.060892001 -0.56542999 -1.4137
-0.058538999 -0.56467003 -1.4118
-0.056132998 -0.56463999 -1.4117
-0.053727001 -0.56461 -1.4117
-0.051254999 -0.56533003 -1.4134001
-0.048845999 -0.56529999 -1.4134001
-0.046363998 -0.56601 -1.4151
-0.044029001 -0.56523001 -1.4132
-0.041661002 -0.56483001 -1.4122
-0.039296001 -0.56441998 -1.4112
-0.036977999 -0.56364 -1.4092
-0.034396 -0.56507999 -1.4128
-0.031893998 -0.56577998 -1.4146
-0.029434999 -0.56611001 -1.4154
-0.027022 -0.56607002 -1.4153
-0.024661999 -0.56564999 -1.4143
-0.022197001 -0.56597 -1.4151
-0.019897001 -0.56518 -1.4131
-0.017201001 -0.56698 -1.4176
-0.0152 -0.56434 -1.411
-0.012673 -0.56502002 -1.4127001
-0.010266 -0.56497002 -1.4126
-0.0078587998 -0.56490999 -1.4124
-0.0055181999 -0.56448001 -1.4112999
-0.0031133001 -0.56441998 -1.4112
-0.00070873997 -0.56436002 -1.411
0.001767 -0.56467003 -1.4118
0.0042460002 -0.56497002 -1.4126
0.0065032002 -0.56417 -1.4105
0.0090600001 -0.56484002 -1.4122
0.011545 -0.56514001 -1.413
0.014113 -0.56581002 -1.4147
0.016605999 -0.56611001 -1.4154
0.018767999 -0.56492001 -1.4124
0.021260001 -0.56522 -1.4132
0.023668 -0.56514001 -1.413
0.026076 -0.56506002 -1.4128
0.028665001 -0.56572002 -1.4144
0.031075001 -0.56563997 -1.4141999
0.033298001 -0.56480998 -1.4122
0.035512 -0.56399 -1.4101
0.038109999 -0.56463999 -1.4117
0.040713999 -0.56528997 -1.4134001
0.043223999 -0.56557 -1.4141001
0.045634001 -0.56547999 -1.4138
0.048043001 -0.56538999 -1.4136
0.050452001 -0.56528997 -1.4134001
0.053185001 -0.56629997 -1.4159
0.055597998 -0.56620997 -1.4155999
0.058122002 -0.56647003 -1.4163001
0.060084 -0.56489998 -1.4124
0.062490001 -0.56480002 -1.4121
0.065130003 -0.56542999 -1.4137
0.067657001 -0.56568998 -1.4144
0.069948003 -0.56522 -1.4132
0.072233997 -0.56474 -1.4119999
0.074763998 -0.565 -1.4126
0.077170998 -0.56488001 -1.4123
0.079704002 -0.56514001 -1.413
0.082240999 -0.56538999 -1.4136
0.085041001 -0.56638002 -1.4161
0.087586999 -0.56663001 -1.4167
0.089734003 -0.56576997 -1.4146
0.092145003 -0.56564999 -1.4143
0.094554998 -0.56553 -1.4139
0.097243004 -0.56614 -1.4155
0.099514998 -0.56563997 -1.4141999
0.10192 -0.56550997 -1.4139
0.10462 -0.56612003 -1.4154
0.10718 -0.56636 -1.416
0.10974 -0.56659001 -1.4166
0.11201 -0.56608999 -1.4153
0.11442 -0.56594998 -1.415
0.11668 -0.56545001 -1.4137
0.11909 -0.56531 -1.4134001
0.12165 -0.56553 -1.414
0.12406 -0.56538999 -1.4136
0.12695 -0.56634998 -1.416
0.1292 -0.56582999 -1.4147
0.13161001 -0.56568998 -1.4143
0.13418999 -0.56590003 -1.4148999
0.13677 -0.56612003 -1.4154
0.13952 -0.56669998 -1.4169
0.14193 -0.56655002 -1.4165
0.14452 -0.56676 -1.4170001
0.14641 -0.56550002 -1.4139
0.14865001 -0.56497997 -1.4126
0.15105 -0.56481999 -1.4122
0.15381999 -0.56538999 -1.4136
0.15640999 -0.56559002 -1.4141001
0.15882 -0.56541997 -1.4137
0.16123 -0.56525999 -1.4133
0.16418999 -0.56617999 -1.4155999
0.1666 -0.56601 -1.4152
0.16901 -0.56584001 -1.4147
0.17143001 -0.56567001 -1.4143
0.17384 -0.56549001 -1.4139
0.17644 -0.56568003 -1.4143
0.17944001 -0.56660002 -1.4166
0.18185 -0.56642002 -1.4162
0.18446 -0.56660002 -1.4166
0.18668 -0.56604999 -1.4153
0.18909 -0.56586999 -1.4148
0.19149999 -0.56568003 -1.4143
0.19431999 -0.56621999 -1.4157
0.19674 -0.56603003 -1.4152
0.19936 -0.56620002 -1.4155999
0.20176999 -0.56601 -1.4152
0.20461001 -0.56654 -1.4165
0.20702 -0.56634003 -1.416
0.20922001 -0.56577998 -1.4146
0.21163 -0.56558001 -1.4141001
0.21492 -0.56682998 -1.4172
0.21732999 -0.56663001 -1.4167
0.21908 -0.56533998 -1.4135
0.22171 -0.56550002 -1.4139
0.22435001 -0.56564999 -1.4143
0.22722 -0.56616002 -1.4155
0.22985999 -0.56630999 -1.4159
0.23204 -0.56573999 -1.4145
0.23492 -0.56625003 -1.4157
0.2378 -0.56674999 -1.4170001
0.23998 -0.56617999 -1.4155999
0.24263 -0.56632 -1.4159
0.24504 -0.5661 -1.4154
0.24770001 -0.56623 -1.4157
0.24987 -0.56564999 -1.4143
0.25202999 -0.56506002 -1.4128
0.25518 -0.56592 -1.4148999
0.25808999 -0.56641001 -1.4161
0.26050001 -0.56617999 -1.4155999
0.26266 -0.56558001 -1.4141001
0.26583001 -0.56642997 -1.4162
0.2685 -0.56655002 -1.4165
0.27090999 -0.56630999 -1.4159
0.27359 -0.56642997 -1.4162
0.27599999 -0.56619 -1.4155999
0.27840999 -0.56594998 -1.415
0.28162 -0.56677997 -1.4171
0.28483 -0.56761003 -1.4191
0.28698 -0.56699997 -1.4176
0.28859001 -0.56568003 -1.4143
0.29073 -0.56506997 -1.4128
0.29286 -0.56445998 -1.4112999
0.29635999 -0.56563997 -1.4141999
0.29960001 -0.56645 -1.4163001
0.30228999 -0.56655002 -1.4165
0.30469999 -0.56629002 -1.4159
0.30739999 -0.56638998 -1.4161
0.31009001 -0.56647998 -1.4163001
0.31251001 -0.56621999 -1.4157
0.31521001 -0.56629997 -1.4159
0.31848001 -0.56709999 -1.4179
0.32032001 -0.56612003 -1.4154
0.32273 -0.56585002 -1.4148
0.32514 -0.56558001 -1.4141001
0.32785001 -0.56566 -1.4143
0.33054999 -0.56573999 -1.4145
0.33445001 -0.56722999 -1.4182
0.33597001 -0.56589001 -1.4148999
0.33868 -0.56595999 -1.415
0.34079 -0.56533003 -1.4134001
0.34349999 -0.56538999 -1.4136
0.34560001 -0.56475002 -1.4119999
0.34832001 -0.56481999 -1.4122
0.35071999 -0.56453001 -1.4115
0.35437 -0.56564999 -1.4143
0.35677999 -0.56536001 -1.4135
0.35918999 -0.56506002 -1.4128
0.36190999 -0.56511998 -1.4129
0.36559001 -0.56623 -1.4157
0.36831999 -0.56628001 -1.4158
0.37136999 -0.56668001 -1.4168
0.37379 -0.56638002 -1.4161
0.37652001 -0.56642002 -1.4162
0.37893999 -0.56612003 -1.4154
0.382 -0.56651002 -1.4164
0.38508001 -0.56690001 -1.4174
0.38848001 -0.56764001 -1.4191999
0.39024001 -0.56661999 -1.4167
0.39265001 -0.56629997 -1.4159
0.39506999 -0.56598997 -1.4151
0.39815 -0.56637001 -1.416
0.40090001 -0.56638998 -1.4161
0.40366 -0.56642002 -1.4162
0.40674999 -0.56678998 -1.4171
0.40950999 -0.56681001 -1.4172
0.41158 -0.56614 -1.4155
0.41398999 -0.56581002 -1.4146
0.41639999 -0.56546998 -1.4138
0.42056 -0.56687999 -1.4173
0.42368001 -0.56724 -1.4182
0.42574999 -0.56655002 -1.4165
0.42745 -0.56551999 -1.4139
0.43022001 -0.56551999 -1.4139
0.4337 -0.56621999 -1.4157
0.43755001 -0.56726003 -1.4183
0.44033 -0.56726003 -1.4183
0.44238999 -0.56656998 -1.4165
0.44553 -0.56691003 -1.4174
0.44940999 -0.56794 -1.42
0.4522 -0.56792998 -1.4198999
0.45462 -0.56756997 -1.4191
0.45741001 -0.56756002 -1.419
0.45945999 -0.56685001 -1.4173
0.46187001 -0.56648999 -1.4164
0.46428001 -0.56612998 -1.4155
0.46632001 -0.56541997 -1.4137
0.46873 -0.56505001 -1.4128
0.47189999 -0.56537002 -1.4136
0.47582999 -0.56638002 -1.4161
0.47940001 -0.56703001 -1.4177001
0.48181999 -0.56665999 -1.4168
0.48462 -0.56663001 -1.4167
0.48780999 -0.56693 -1.4175
0.49061999 -0.56689 -1.4174
0.49263999 -0.56616998 -1.4155999
0.49623001 -0.56681001 -1.4172
0.49825001 -0.56608999 -1.4153
0.50146002 -0.56638002 -1.4161
0.50506997 -0.56700999 -1.4177001
0.50828999 -0.56730002 -1.4184
0.50989997 -0.56623 -1.4157
0.51352 -0.56685001 -1.4173
0.51634002 -0.5668 -1.4171
0.51956999 -0.56708002 -1.4177999
0.52199 -0.56668001 -1.4168
0.52358001 -0.56559998 -1.4141001
0.52640003 -0.56553 -1.414
0.53004998 -0.56614 -1.4155
0.53454 -0.56743002 -1.4187
0.53737003 -0.56734997 -1.4184999
0.53978997 -0.56694001 -1.4175
0.54220003 -0.56652999 -1.4164
0.54545999 -0.56678998 -1.4171
0.54913998 -0.56738001 -1.4186
0.55113 -0.56661999 -1.4167
0.55312002 -0.56586999 -1.4148
0.55553001 -0.56544 -1.4137
0.56009001 -0.56669998 -1.4169
0.56207001 -0.56594002 -1.415
0.56535 -0.56617999 -1.4155999
0.56731999 -0.56541002 -1.4137
0.57191002 -0.56664997 -1.4168
0.57563001 -0.56721997 -1.4182
0.57805002 -0.56677997 -1.4171
0.58046001 -0.56634998 -1.416
0.58332002 -0.56624001 -1.4157
0.58661997 -0.56646001 -1.4163001
0.59125 -0.56768 -1.4193
0.59412003 -0.56756997 -1.4191
0.59697998 -0.56744999 -1.4188
0.59895003 -0.56667 -1.4168
0.60181999 -0.56655002 -1.4165
0.60513997 -0.56676 -1.4170001
0.60799998 -0.56663001 -1.4167
0.61132997 -0.56683999 -1.4172
0.61329001 -0.56604999 -1.4152
0.61662 -0.56624001 -1.4157
0.61995 -0.56643999 -1.4162
0.62282002 -0.56629997 -1.4159
0.62524003 -0.56584001 -1.4147
0.62810999 -0.56569999 -1.4144
0.63284999 -0.56686997 -1.4173
0.63666999 -0.56738001 -1.4186
0.63909 -0.56690001 -1.4174
0.64197999 -0.56674999 -1.4170001
0.64533001 -0.56693 -1.4174
0.64822 -0.56677002 -1.4171
0.65064001 -0.56629002 -1.4159
0.65639001 -0.56809002 -1.4204
0.65881002 -0.56760001 -1.4191
0.66123003 -0.56711 -1.4179
0.66509002 -0.56759 -1.4191
0.66847998 -0.56774998 -1.4195
0.67186999 -0.5679 -1.4198999
0.67429 -0.56739998 -1.4186
0.67817003 -0.56787002 -1.4198
0.68156999 -0.56801999 -1.4202
0.68448001 -0.56783998 -1.4197
0.68690002 -0.56733 -1.4184999
0.69029999 -0.56747001 -1.4188
0.69371003 -0.56760001 -1.4191
0.69612998 -0.56708997 -1.4177999
0.69904 -0.56689 -1.4174
0.70095998 -0.56606001 -1.4153
0.70638001 -0.56747001 -1.4188
0.71081001 -0.56822997 -1.4207
0.71424001 -0.56834 -1.421
0.71717 -0.56813997 -1.4205
0.72162002 -0.56888998 -1.4224
0.72455001 -0.56867999 -1.4218
0.72798997 -0.56878 -1.4220999
0.72887999 -0.56729001 -1.4184
0.7313 -0.56676 -1.4170001
0.73526001 -0.56717002 -1.4181
0.73922998 -0.56759 -1.4191
0.74163997 -0.56704003 -1.4177001
0.74405998 -0.56650001 -1.4164
0.74908 -0.56753999 -1.419
0.75305998 -0.56794 -1.42
0.75547999 -0.56739002 -1.4186
0.75737 -0.56651998 -1.4164
0.76084 -0.56659001 -1.4166
0.76431 -0.56667 -1.4168
0.76779002 -0.56673998 -1.4170001
0.77126002 -0.56681001 -1.4171
0.77473998 -0.56686997 -1.4173
0.77929997 -0.56756002 -1.419
0.78279001 -0.56761998 -1.4191999
0.78627998 -0.56768 -1.4193
0.78816003 -0.56678998 -1.4171
0.79165 -0.56683999 -1.4172
0.79407001 -0.56625998 -1.4158
0.79865003 -0.56693 -1.4175
0.80216002 -0.56696999 -1.4176
0.80511999 -0.56669998 -1.4169
0.80862999 -0.56673998 -1.4170001
0.81269002 -0.56708002 -1.4177999
0.81564999 -0.5668 -1.4171
0.81917 -0.56682998 -1.4172
0.82435 -0.56778002 -1.4196
0.82844001 -0.56810999 -1.4204
0.83086002 -0.56751001 -1.4189
0.83328003 -0.56691003 -1.4174
0.83793002 -0.56752998 -1.419
0.84202999 -0.56784999 -1.4198
0.84670001 -0.56847 -1.4213001
0.84912002 -0.56786001 -1.4198
0.85096997 -0.56694001 -1.4175
0.85452002 -0.56693 -1.4175
0.85693997 -0.56630999 -1.4159
0.86162001 -0.56691998 -1.4174
0.86518002 -0.56690001 -1.4174
-1.056 -0.5618 -1.4087
-1.0518 -0.56151003 -1.408
-1.0472 -0.56090999 -1.4065
-1.0425 -0.56029999 -1.405
-1.0373 -0.55939001 -1.4026999
-1.0349 -0.56 -1.4042
-1.0331 -0.56090999 -1.4065
-1.0312001 -0.56181997 -1.4088
-1.0283 -0.56211001 -1.4095
-1.0247 -0.56209999 -1.4095
-1.0201 -0.56146997 -1.4079
-1.0154999 -0.56084001 -1.4062999
-1.0109 -0.56019998 -1.4047
-1.0057 -0.55923998 -1.4023
-1.0028 -0.55952001 -1.403
-1.0003999 -0.56010997 -1.4045
-0.99689001 -0.56006998 -1.4044
-0.99505001 -0.56095999 -1.4066
-0.99264997 -0.56154001 -1.4081
-0.99080002 -0.56243002 -1.4103
-0.98730999 -0.56238002 -1.4102
-0.98273998 -0.56171 -1.4085
-0.97763002 -0.56072998 -1.406
-0.97416002 -0.56067002 -1.4059
-0.97229999 -0.56155002 -1.4081
-0.97043997 -0.56243002 -1.4103
-0.9659 -0.56173998 -1.4086
-0.96243 -0.56167001 -1.4084001
-0.95630997 -0.56004 -1.4043
-0.95020998 -0.55839002 -1.4002
-0.87595999 -0.51617002 -1.2943
-0.80368 -0.47479999 -1.1906
-0.83794999 -0.49700999 -1.2462
-0.85628998 -0.50979 -1.2783
-0.85413998 -0.51028001 -1.2795
-0.88271999 -0.52942002 -1.3275
-0.93087 -0.56063002 -1.4058
-0.92848003 -0.56116998 -1.4071
-0.92556 -0.56138998 -1.4076999
-0.92212999 -0.56129003 -1.4074
-0.91870999 -0.56119001 -1.4072
-0.91529 -0.56107998 -1.4069
-0.91187 -0.56097001 -1.4066
-0.90947002 -0.56150001 -1.408
-0.90706998 -0.56202 -1.4093
-0.90416998 -0.56222999 -1.4098001
-0.90126002 -0.56243002 -1.4103
-0.89835 -0.56263 -1.4108
-0.89494997 -0.5625 -1.4105
-0.89003998 -0.56141001 -1.4076999
-0.83679998 -0.52916998 -1.3269
-0.77541 -0.4914 -1.2322
-0.76837999 -0.48862001 -1.2252001
-0.76633 -0.48905 -1.2263
-0.76525998 -0.49013001 -1.229
-0.83045 -0.53477001 -1.3408999
-0.86536998 -0.55980003 -1.4037
-0.86396003 -0.56094003 -1.4066
-0.86205 -0.56176001 -1.4086
-0.85819 -0.56128001 -1.4074
-0.85531002 -0.56145 -1.4078
-0.85290998 -0.56194001 -1.4091001
-0.84859002 -0.56112999 -1.4069999
-0.84571999 -0.56129003 -1.4074
-0.84380001 -0.56208998 -1.4094
-0.84139001 -0.56257999 -1.4107
-0.83851999 -0.56273001 -1.411
-0.83328003 -0.56124997 -1.4073
-0.83182001 -0.56238002 -1.4102
-0.82848001 -0.56220001 -1.4097
-0.82560998 -0.56234002 -1.4101
-0.82181001 -0.56182998 -1.4088
-0.81848001 -0.56164002 -1.4083
-0.81515002 -0.56145 -1.4078
-0.81274998 -0.56191999 -1.409
-0.80851001 -0.56106001 -1.4069
-0.80611002 -0.56151998 -1.408
-0.80372 -0.56198001 -1.4092
-0.79948997 -0.56111997 -1.4069999
-0.79301 -0.55860001 -1.4007
-0.78384 -0.55409002 -1.3894
-0.77291 -0.54825002 -1.3747
-0.76517999 -0.54471999 -1.3659
-0.76240999 -0.54482001 -1.3661
-0.76857001 -0.55154997 -1.383
-0.77467 -0.55829 -1.3999
-0.77272999 -0.55905002 -1.4018
-0.77078003 -0.55982 -1.4038
-0.76839 -0.56026 -1.4048001
-0.76380002 -0.55903 -1.4018
-0.76229 -0.56011999 -1.4045
-0.75816 -0.55922002 -1.4022
-0.75273001 -0.55730999 -1.3974
-0.74690002 -0.55506003 -1.3918
-0.74453002 -0.55548 -1.3929
-0.74216002 -0.55589998 -1.3939
-0.73550999 -0.55295998 -1.3866
-0.71612 -0.53996998 -1.354
-0.71254998 -0.53935999 -1.3523999
-0.70941001 -0.53908998 -1.3518
-0.70712 -0.53947997 -1.3528
-0.70398998 -0.53920001 -1.3521
-0.70169002 -0.53960001 -1.353
-0.69897997 -0.53965002 -1.3532
-0.69586003 -0.53935999 -1.3525
-0.69356 -0.53974998 -1.3534
-0.69044 -0.53946 -1.3527
-0.68937999 -0.54086 -1.3562
-0.68625998 -0.54056001 -1.3555
-0.68356001 -0.5406 -1.3556
-0.68085003 -0.54064 -1.3557
-0.67895001 -0.54136002 -1.3575
-0.67745 -0.54241002 -1.3601
-0.67514998 -0.54279 -1.3609999
-0.67443001 -0.54452002 -1.3654
-0.67607999 -0.54829001 -1.3748
-0.67690998 -0.55138999 -1.3825999
-0.67692 -0.55381 -1.3887
-0.67808998 -0.55725002 -1.3973
-0.67806 -0.55966997 -1.4033999
-0.67723 -0.56141001 -1.4076999
-0.67522001 -0.56212002 -1.4095
-0.67203999 -0.56181002 -1.4087
-0.66848999 -0.56116003 -1.4071
-0.66609001 -0.56152999 -1.408
-0.66293001 -0.56120998 -1.4072
-0.66091001 -0.56191999 -1.409
-0.65814 -0.56194001 -1.4091001
-0.65649003 -0.56298 -1.4117
-0.65333003 -0.56265998 -1.4109
-0.65056002 -0.56266999 -1.4109
-0.64740998 -0.56234002 -1.4101
-0.64353001 -0.56132001 -1.4075
-0.64112997 -0.56167001 -1.4084001
-0.63762999 -0.56098998 -1.4067
-0.63669997 -0.56272 -1.411
-0.63283998 -0.56168997 -1.4084001
-0.63044 -0.56203002 -1.4093
-0.62695998 -0.56133997 -1.4076
-0.62313002 -0.56029999 -1.4049
-0.62145001 -0.56133002 -1.4075
-0.61798 -0.56063002 -1.4058
-0.61558998 -0.56097001 -1.4066
-0.61249 -0.56061 -1.4057
-0.61045003 -0.56129003 -1.4074
-0.60839999 -0.56195998 -1.4091001
-0.60565001 -0.56195003 -1.4091001
-0.60255998 -0.56158 -1.4082
-0.60016 -0.56190997 -1.409
-0.59776002 -0.56222999 -1.4098001
-0.59535998 -0.56255001 -1.4105999
-0.59193999 -0.56182998 -1.4088
-0.58954 -0.56215 -1.4096
-0.58679998 -0.56212002 -1.4095
-0.5844 -0.56243002 -1.4103
-0.58166999 -0.56239998 -1.4102
-0.57925999 -0.56270999 -1.411
-0.57586998 -0.56197 -1.4091001
-0.57282001 -0.56158 -1.4082
-0.56911999 -0.56049001 -1.4054
-0.56704998 -0.56114 -1.4071
-0.56465 -0.56145 -1.4078
-0.56225002 -0.56174999 -1.4086
-0.5589 -0.56098998 -1.4067
-0.55650002 -0.56129003 -1.4074
-0.55409998 -0.56159002 -1.4082
-0.5517 -0.56187999 -1.4089
-0.54899001 -0.56181997 -1.4088
-0.54597002 -0.56141001 -1.4076999
-0.54387999 -0.56204998 -1.4093
-0.54117 -0.56199002 -1.4092
-0.53785998 -0.56121999 -1.4072
-0.53606999 -0.56221002 -1.4097
-0.53365999 -0.56248999 -1.4104
-0.53126001 -0.56277001 -1.4111
-0.52736002 -0.56128001 -1.4074
-0.52495998 -0.56155998 -1.4081
-0.52257001 -0.56184 -1.4088
-0.51986998 -0.56176001 -1.4086
-0.51776999 -0.56238002 -1.4102
-0.51536 -0.56265998 -1.4109
-0.51266998 -0.56256998 -1.4105999
-0.51027 -0.56283998 -1.4112999
-0.50729001 -0.56239998 -1.4102
-0.50318003 -0.56053001 -1.4055001
-0.50079 -0.56079 -1.4062001
-0.49868 -0.56141001 -1.4076999
-0.49599999 -0.56130999 -1.4075
-0.49360001 -0.56156999 -1.4081
-0.49065 -0.56111002 -1.4069999
-0.48879999 -0.56208003 -1.4094
-0.48640001 -0.56233001 -1.41
-0.48453999 -0.56329 -1.4125
-0.4824 -0.56389999 -1.414
-0.47786 -0.56129003 -1.4074
-0.47519001 -0.56118 -1.4072
-0.47253001 -0.56107002 -1.4069
-0.47040001 -0.56167001 -1.4084001
-0.46774 -0.56155002 -1.4081
-0.46560001 -0.56215 -1.4096
-0.46294001 -0.56203002 -1.4093
-0.46054 -0.56225997 -1.4099
-0.45789 -0.56213999 -1.4096
-0.45523 -0.56200999 -1.4092
-0.45258 -0.56187999 -1.4089
-0.44993001 -0.56174999 -1.4086
-0.44703999 -0.56125998 -1.4074
-0.44464001 -0.56149 -1.4079
-0.44224 -0.56171 -1.4085
-0.43985 -0.56194001 -1.409
-0.43697 -0.56143999 -1.4078
-0.43432999 -0.56129998 -1.4074
-0.43241 -0.56222999 -1.4098001
-0.43000001 -0.56244999 -1.4103
-0.42713001 -0.56194001 -1.4091001
-0.42449999 -0.5618 -1.4087
-0.42210001 -0.56200999 -1.4092
-0.41947001 -0.56186002 -1.4089
-0.41729999 -0.56242001 -1.4103
-0.41466999 -0.56226999 -1.4099
-0.41249999 -0.56283998 -1.4112999
-0.40943 -0.56195998 -1.4091001
-0.40724999 -0.56252003 -1.4105
-0.40483999 -0.56272 -1.411
-0.40222001 -0.56255001 -1.4105999
-0.39982 -0.56274998 -1.4111
-0.39741999 -0.56295002 -1.4116
-0.39458999 -0.56242001 -1.4103
-0.39177001 -0.56187999 -1.4089
-0.38936999 -0.56207001 -1.4094
-0.38758001 -0.56335002 -1.4126
-0.38518 -0.56353003 -1.4131
-0.38196 -0.56226999 -1.4099
-0.37875 -0.56099999 -1.4067
-0.37636 -0.56118 -1.4072
-0.37436 -0.56208998 -1.4094
-0.37176001 -0.56190002 -1.409
-0.36954999 -0.56243998 -1.4103
-0.36715001 -0.56261998 -1.4108
-0.36475 -0.56278998 -1.4112
-0.36140001 -0.56115001 -1.4071
-0.359 -0.56132001 -1.4075
-0.35659999 -0.56149 -1.4079
-0.35420999 -0.56164998 -1.4083
-0.35181001 -0.56181997 -1.4088
-0.34941 -0.56198001 -1.4092
-0.34737 -0.56287003 -1.4114
-0.34496 -0.56304002 -1.4118
-0.34255999 -0.56318998 -1.4122
-0.34015 -0.56335002 -1.4126
-0.33757001 -0.56313998 -1.4121
-0.33533999 -0.56366003 -1.4134001
-0.33259001 -0.56309003 -1.4119
-0.33019 -0.56323999 -1.4123
-0.32745001 -0.56265998 -1.4109
-0.32488 -0.56243998 -1.4103
-0.32264 -0.56295002 -1.4116
-0.32023999 -0.56309998 -1.4119999
-0.31799001 -0.56361002 -1.4132
-0.31542999 -0.56338 -1.4127001
-0.31301999 -0.56352001 -1.413
-0.31015 -0.56256002 -1.4105999
-0.30774999 -0.56269997 -1.411
-0.30594 -0.5643 -1.415
-0.30353001 -0.56444001 -1.4153
-0.30112001 -0.56457001 -1.4157
-0.29798999 -0.56287003 -1.4114
-0.29543999 -0.56263 -1.4108
-0.29317999 -0.56312001 -1.4119999
-0.29091001 -0.56361997 -1.4133
-0.28823 -0.56300998 -1.4117
-0.28555 -0.56239998 -1.4102
-0.28327999 -0.56288999 -1.4114
-0.28088 -0.56300002 -1.4117
-0.27847001 -0.56312001 -1.4119999
-0.27607 -0.56323999 -1.4123
-0.27353999 -0.56299001 -1.4117
-0.27113 -0.56309998 -1.4119999
-0.26848 -0.56247997 -1.4104
-0.26620001 -0.56295002 -1.4116
-0.26391 -0.56343001 -1.4128
-0.26161999 -0.56391001 -1.414
-0.25885999 -0.56291002 -1.4115
-0.25635001 -0.56264001 -1.4108
-0.25393999 -0.56274998 -1.4111
-0.25176001 -0.56357998 -1.4132
-0.24913 -0.56295002 -1.4116
-0.24662 -0.56268001 -1.4109
-0.24422 -0.56277001 -1.4111
-0.24191999 -0.56322998 -1.4123
-0.23972 -0.56405997 -1.4144
-0.23721001 -0.56379002 -1.4137
-0.23459999 -0.56313998 -1.4121
-0.23219 -0.56322998 -1.4123
-0.22979 -0.56331003 -1.4125
-0.22747999 -0.56377 -1.4136
-0.22498 -0.56348002 -1.4129
-0.22257 -0.56356001 -1.4131
-0.22007 -0.56327999 -1.4124
-0.21766999 -0.56335998 -1.4126
-0.21492 -0.56195998 -1.4091001
-0.21269 -0.56277001 -1.4111
-0.21012001 -0.56211001 -1.4095
-0.20788001 -0.56291997 -1.4115
-0.20532 -0.56225002 -1.4098001
-0.20291001 -0.56231999 -1.41
-0.20059 -0.56274998 -1.4111
-0.19818 -0.56282002 -1.4112999
-0.19585 -0.56326002 -1.4124
-0.19359 -0.56405997 -1.4144
-0.19118001 -0.56411999 -1.4145
-0.18843 -0.56233001 -1.41
-0.18603 -0.56239003 -1.4102
-0.18369 -0.56282002 -1.4112999
-0.18134999 -0.56323999 -1.4123
-0.17889 -0.56291997 -1.4115
-0.17642 -0.56260997 -1.4107
-0.17408 -0.56303 -1.4118
-0.17162 -0.56270999 -1.411
-0.16926999 -0.56312001 -1.4119999
-0.16676 -0.56243002 -1.4103
-0.1645 -0.56357998 -1.4132
-0.16214 -0.56400001 -1.4141999
-0.15978 -0.56440997 -1.4153
-0.15737 -0.56445003 -1.4154
-0.15487 -0.56375003 -1.4136
-0.15242 -0.56340998 -1.4128
-0.15002 -0.56344998 -1.4128
-0.14765 -0.56384999 -1.4139
-0.14517 -0.56313998 -1.4121
-0.14275999 -0.56317002 -1.4122
-0.14036 -0.5632 -1.4122
-0.13795 -0.56322998 -1.4123
-0.13552 -0.56288999 -1.4114
-0.13311 -0.56291002 -1.4115
-0.13073 -0.56330001 -1.4125
-0.12830999 -0.56295002 -1.4116
-0.1259 -0.56296998 -1.4116
-0.1235 -0.56299001 -1.4117
-0.12111 -0.56338 -1.4127001
-0.11872 -0.56375998 -1.4136
-0.1163 -0.56340998 -1.4127001
-0.11388 -0.56304997 -1.4118
-0.11148 -0.56343001 -1.4128
-0.10908 -0.56344002 -1.4128
-0.10668 -0.56380999 -1.4138
-0.10427 -0.56382 -1.4138
-0.10186 -0.56382 -1.4138
-0.099449001 -0.56344998 -1.4129
-0.097042002 -0.56270999 -1.411
-0.094636001 -0.56344998 -1.4129
-0.092229001 -0.56344998 -1.4129
-0.089822002 -0.56344998 -1.4128
-0.087401003 -0.56418002 -1.4147
-0.084982999 -0.56454998 -1.4155999
-0.082571 -0.56454003 -1.4155999
-0.080182999 -0.56379002 -1.4137
-0.077761002 -0.56414998 -1.4146
-0.075365998 -0.56375998 -1.4136
-0.072976001 -0.56338 -1.4127001
-0.070531003 -0.56410003 -1.4145
-0.068121001 -0.56408 -1.4144
-0.065710999 -0.56405997 -1.4144
-0.063302003 -0.56404001 -1.4143
-0.060892001 -0.56401998 -1.4143
-0.058483001 -0.56400001 -1.4141999
-0.056132998 -0.56322998 -1.4123
-0.053727001 -0.5632 -1.4122
-0.051222 -0.56428999 -1.4148999
-0.048811 -0.56426001 -1.4148999
-0.046328001 -0.56496 -1.4166
-0.044029001 -0.56382 -1.4138
-0.041579999 -0.56414998 -1.4146
-0.039170001 -0.56411999 -1.4145
-0.036717001 -0.56445003 -1.4154
-0.034306001 -0.56440997 -1.4153
-0.031941 -0.56400001 -1.4141999
-0.029580999 -0.56358999 -1.4132
-0.027174 -0.56353998 -1.4131
-0.024767 -0.56349999 -1.413
-0.022360001 -0.56344998 -1.4128
-0.019897001 -0.56377 -1.4136
-0.017488999 -0.56371999 -1.4135
-0.015081 -0.56366998 -1.4134001
-0.012795 -0.56287003 -1.4114
-0.010329 -0.56318998 -1.4122
-0.0078587998 -0.56349999 -1.413
-0.0053194999 -0.56418002 -1.4147
-0.0029773 -0.56375003 -1.4136
-0.00056929002 -0.56369001 -1.4134001
0.00191 -0.56400001 -1.4141999
0.0045388001 -0.56503999 -1.4168
0.0068780002 -0.56459999 -1.4157
0.0092133004 -0.56417 -1.4146
0.011545 -0.56373 -1.4135
0.014033 -0.56402999 -1.4143
0.01636 -0.56357998 -1.4132
0.018935001 -0.56424999 -1.4148
0.021345001 -0.56417 -1.4147
0.023841999 -0.56445998 -1.4154
0.026254 -0.56439 -1.4152
0.028755 -0.56467003 -1.4159
0.031168001 -0.56458998 -1.4157
0.033580001 -0.56450999 -1.4155
0.035990998 -0.56441998 -1.4153
0.038403001 -0.56434 -1.4151
0.040913001 -0.56462002 -1.4158
0.043122999 -0.56379002 -1.4137
0.045634001 -0.56406999 -1.4144
0.047938999 -0.56361002 -1.4132
0.050558001 -0.56424999 -1.4148
0.053077001 -0.56452 -1.4155
0.055597998 -0.56479001 -1.4162
0.058010999 -0.56468999 -1.416
0.060309999 -0.56422001 -1.4148
0.062605001 -0.56375003 -1.4136
0.065012999 -0.56365001 -1.4133
0.067420997 -0.56353998 -1.4131
0.069948003 -0.56379998 -1.4137
0.072356001 -0.56369001 -1.4135
0.074763998 -0.56357998 -1.4132
0.077170998 -0.56347001 -1.4129
0.079957999 -0.56445998 -1.4154
0.082369998 -0.56435001 -1.4151
0.084911004 -0.56459999 -1.4157
0.087323003 -0.56448001 -1.4154
0.089734003 -0.56436002 -1.4151
0.092688002 -0.56569999 -1.4184999
0.095242001 -0.56594998 -1.4191
0.097661003 -0.56581998 -1.4188
0.10022 -0.56606001 -1.4194
0.10235 -0.56519997 -1.4172
0.10477 -0.56506997 -1.4169
0.10733 -0.56531 -1.4175
0.10989 -0.56554002 -1.4181
0.11201 -0.56467003 -1.4159
0.11472 -0.56527001 -1.4174
0.11683 -0.56440002 -1.4152
0.1194 -0.56462997 -1.4158
0.12165 -0.56411999 -1.4145
0.12454 -0.56507999 -1.4169
0.12711 -0.56529999 -1.4175
0.12953 -0.56515002 -1.4171
0.13194001 -0.565 -1.4167
0.13451999 -0.56522 -1.4173
0.13693 -0.56506997 -1.4169
0.13935 -0.56492001 -1.4165
0.14227 -0.56585997 -1.4189
0.14452 -0.56533998 -1.4176
0.14676 -0.56481999 -1.4163001
0.14917 -0.56466001 -1.4159
0.15176 -0.56485999 -1.4164
