# .PCD v0.7 - Point Cloud Data file format
VERSION 0.7
FIELDS x y z
SIZE 4 4 4
TYPE F F F
COUNT 1 1 1
WIDTH 1606
HEIGHT 1
VIEWPOINT 0 0 0 1 0 0 0
POINTS 1606
DATA ascii
-0.41765001 -0.30092999 -1.8823
-0.41474 -0.30116999 -1.8838
-0.41148999 -0.30109999 -1.8834
-0.40893 -0.30166 -1.8868001
-0.40549999 -0.30142999 -1.8854001
-0.40241 -0.30151999 -1.8859
-0.39831001 -0.30067 -1.8806
-0.39473999 -0.30028 -1.8782001
-0.39183 -0.30052 -1.8796999
-0.38892001 -0.30076 -1.8812
-0.38552001 -0.30052 -1.8796999
-0.38260001 -0.30076 -1.8812
-0.38016 -0.30146 -1.8856
-0.37722999 -0.30169001 -1.887
-0.37399 -0.30162001 -1.8866
-0.37090001 -0.30169001 -1.887
-0.36781001 -0.30177 -1.8875
-0.36427 -0.30136999 -1.885
-0.36149001 -0.30175999 -1.8874
-0.3581 -0.30151999 -1.8859
-0.35459 -0.30112001 -1.8835
-0.35108 -0.30072001 -1.881
-0.34828001 -0.30109999 -1.8834
-0.3452 -0.30116999 -1.8838
-0.34211999 -0.30124 -1.8842
-0.33862999 -0.30083999 -1.8817
-0.33568001 -0.30105999 -1.8831
-0.3326 -0.30113 -1.8835
-0.32951999 -0.30118999 -1.8839
-0.32644001 -0.30125999 -1.8843
-0.32336 -0.30131999 -1.8846999
-0.32052001 -0.30169001 -1.887
-0.31718999 -0.30144 -1.8855
-0.31398001 -0.30134001 -1.8849
-0.31066 -0.30109 -1.8832999
-0.30781001 -0.30146 -1.8856
-0.30450001 -0.30120999 -1.8839999
-0.30140999 -0.30125999 -1.8843
-0.29822001 -0.30116001 -1.8837
-0.29491001 -0.30090001 -1.8821
-0.29227 -0.30159 -1.8864
-0.28918999 -0.30164 -1.8867
-0.28630999 -0.30201 -1.8890001
-0.28279999 -0.30142999 -1.8854001
-0.28003001 -0.30195001 -1.8887
-0.27682999 -0.30184001 -1.888
-0.27344999 -0.30142 -1.8853
-0.26967999 -0.30037001 -1.8788
-0.26661 -0.30041999 -1.8791
-0.26372001 -0.30078 -1.8813
-0.26064 -0.30081999 -1.8816
-0.25775 -0.30118001 -1.8838
-0.25457999 -0.30107 -1.8831
-0.25158 -0.30127001 -1.8844
-0.24833 -0.301 -1.8827
-0.24533001 -0.3012 -1.8839
-0.24217001 -0.30107999 -1.8832
-0.23917 -0.30127999 -1.8844
-0.23608001 -0.30131 -1.8846999
-0.233 -0.30135 -1.8849
-0.23014 -0.30186 -1.8881
-0.22683001 -0.30142999 -1.8854001
-0.22382 -0.30162001 -1.8866
-0.22059 -0.30134001 -1.8848
-0.21743999 -0.30120999 -1.8839999
-0.21428999 -0.30109 -1.8832999
-0.21128 -0.30127999 -1.8844
-0.20818999 -0.30131 -1.8846
-0.20511 -0.30134001 -1.8848
-0.20191 -0.30105001 -1.883
-0.19877 -0.30092999 -1.8822
-0.19597 -0.30173999 -1.8873
-0.19294 -0.30193001 -1.8885
-0.18985 -0.30195001 -1.8887
-0.18675999 -0.30197999 -1.8888
-0.18367 -0.30199999 -1.8890001
-0.18034001 -0.30124 -1.8842
-0.17726 -0.30125999 -1.8843
-0.17417 -0.30127999 -1.8845
-0.17109001 -0.30129999 -1.8846
-0.16805001 -0.30148 -1.8857
-0.16496 -0.30149999 -1.8858
-0.16195001 -0.30182999 -1.8879
-0.15886 -0.30184999 -1.888
-0.15564001 -0.30123001 -1.8842
-0.15262 -0.30157 -1.8862
-0.14945 -0.30111 -1.8834
-0.14642 -0.30144 -1.8854001
-0.14328 -0.30113 -1.8835
-0.1402 -0.30114999 -1.8836
-0.13711999 -0.30116001 -1.8837
-0.13404 -0.30116999 -1.8838
-0.13091999 -0.30085999 -1.8818001
-0.12784 -0.30087 -1.8819
-0.12481 -0.30135 -1.8849
-0.12173 -0.30136001 -1.885
-0.11864 -0.30136999 -1.885
-0.11554 -0.30105999 -1.8831
-0.11247 -0.30122 -1.8841
-0.10937 -0.30091 -1.8821
-0.1063 -0.30107 -1.8831
-0.10322 -0.30123001 -1.8841
-0.10014 -0.30123001 -1.8841
-0.097053997 -0.30123001 -1.8841
-0.093976997 -0.30076 -1.8812
-0.090893 -0.30107 -1.8831
-0.087807998 -0.30123001 -1.8841
-0.084725998 -0.30122 -1.8841
-0.081616998 -0.30169001 -1.887
-0.078539997 -0.30153 -1.886
-0.075443 -0.30168 -1.887
-0.072369002 -0.30151999 -1.8859
-0.069252998 -0.30182999 -1.8879
-0.066164002 -0.30182001 -1.8878
-0.063074999 -0.30181 -1.8878
-0.060028002 -0.30149001 -1.8857
-0.056965999 -0.30131999 -1.8846999
-0.053858001 -0.30146 -1.8856
-0.050747 -0.30160999 -1.8865
-0.047633 -0.30175 -1.8874
-0.044544999 -0.30173999 -1.8873
-0.04152 -0.30140999 -1.8853
-0.038435999 -0.30138999 -1.8852
-0.035351999 -0.30138001 -1.8851
-0.032267999 -0.30136001 -1.8849
-0.029185001 -0.30134001 -1.8848
-0.026061 -0.30148 -1.8857
-0.022893 -0.30177 -1.8875
-0.019804999 -0.30175 -1.8874
-0.016717 -0.30173001 -1.8873
-0.013676 -0.30155 -1.8862
-0.010542 -0.30169001 -1.887
-0.0074544 -0.30166 -1.8868001
-0.0044721002 -0.30131999 -1.8846999
-0.0015511001 -0.30081999 -1.8816
0.0015265 -0.3008 -1.8814
0.0047188001 -0.30107999 -1.8832
0.0079178996 -0.30136999 -1.885
0.011063 -0.30149999 -1.8858
0.014273 -0.30177999 -1.8875999
0.017297 -0.30160001 -1.8864
0.020515 -0.30188 -1.8882
0.023605 -0.30184999 -1.888
0.026833 -0.30213001 -1.8897001
0.029925 -0.30208999 -1.8895
0.032942999 -0.3019 -1.8882999
0.035958 -0.30171001 -1.8871
0.038892001 -0.30135 -1.8849
0.041974999 -0.30131999 -1.8846999
0.045058001 -0.30127999 -1.8844
0.048223 -0.30138999 -1.8852
0.051474001 -0.30167001 -1.8868999
0.054561 -0.30162999 -1.8866
0.057386 -0.30111 -1.8834
0.060555 -0.30123001 -1.8841
0.063637003 -0.30118001 -1.8839
0.066811003 -0.30129999 -1.8846
0.069611996 -0.30078 -1.8813
0.07288 -0.30105001 -1.883
0.076350003 -0.30162999 -1.8866
0.079735003 -0.30204999 -1.8893
0.082624003 -0.30169001 -1.887
0.085607998 -0.30148 -1.8857
0.088379003 -0.30096 -1.8825001
0.091670997 -0.30122 -1.8841
0.094860002 -0.30133 -1.8846999
0.097943999 -0.30127001 -1.8844
0.10103 -0.30122 -1.8841
0.10411 -0.30116001 -1.8837
0.1073 -0.30127001 -1.8844
0.1105 -0.30136999 -1.885
0.11394 -0.30177999 -1.8875999
0.11703 -0.30171999 -1.8872
0.11987 -0.30135 -1.8849
0.12296 -0.30129001 -1.8845
0.12616 -0.30138001 -1.8851
0.12912001 -0.30116001 -1.8837
0.13233 -0.30125999 -1.8843
0.13528 -0.30103999 -1.8829
0.13889 -0.30160001 -1.8864
0.14224 -0.30184999 -1.888
0.14533 -0.30177999 -1.8875999
0.14827999 -0.30156001 -1.8862
0.15123001 -0.30133 -1.8848
0.15445 -0.30142 -1.8853
0.15768 -0.30151001 -1.8859
0.16105001 -0.30175 -1.8874
0.16414 -0.30168 -1.8868999
0.16693 -0.30129001 -1.8845
0.17002 -0.30122 -1.8841
0.17325 -0.30129999 -1.8846
0.17648 -0.30138001 -1.8851
0.17957 -0.30131 -1.8846
0.18218 -0.30076 -1.8812
0.18557 -0.301 -1.8827
0.18912999 -0.30138999 -1.8851
0.19254 -0.30162001 -1.8866
0.19578999 -0.30169001 -1.887
0.19855 -0.30129999 -1.8846
0.20213 -0.30169001 -1.887
0.20537999 -0.30175999 -1.8874
0.20863999 -0.30182999 -1.8879
0.21173 -0.30175 -1.8874
0.21499 -0.30182001 -1.8878
0.21843 -0.30204001 -1.8892
0.22099 -0.30149001 -1.8857
0.22407 -0.30140001 -1.8852
0.22716001 -0.30131 -1.8846
0.23024 -0.30122 -1.8841
0.23677 -0.30135 -1.8849
0.68018001 -0.27401 -1.7139
-0.44648001 -0.29914999 -1.8832
-0.4434 -0.29923999 -1.8838
-0.44013 -0.29918 -1.8834
-0.43705001 -0.29927999 -1.8839999
-0.43397 -0.29936999 -1.8846
-0.43033001 -0.29899999 -1.8822
-0.42725 -0.29909 -1.8828
-0.42416999 -0.29918 -1.8834
-0.42109001 -0.29927 -1.8839
-0.41800001 -0.29936001 -1.8845
-0.41492 -0.29944 -1.8851
-0.41165999 -0.29938 -1.8846
-0.40858001 -0.29945999 -1.8852
-0.40531999 -0.29938999 -1.8846999
-0.40257999 -0.29978999 -1.8872
-0.39916 -0.29956001 -1.8858
-0.39607 -0.29964 -1.8863
-0.39265001 -0.29940999 -1.8849
-0.38924 -0.29919001 -1.8834
-0.38615999 -0.29925999 -1.8839
-0.38324001 -0.29949999 -1.8854001
-0.38032001 -0.29973 -1.8868999
-0.37722999 -0.29980999 -1.8873
-0.37368 -0.29942 -1.8849
-0.37090001 -0.29980999 -1.8873
-0.36765999 -0.29971999 -1.8868001
-0.36412001 -0.29933 -1.8844
-0.36089 -0.29925001 -1.8838
-0.35795999 -0.29947999 -1.8853
-0.35530999 -0.30001 -1.8886
-0.35165 -0.29945999 -1.8852
-0.34841999 -0.29938 -1.8846
-0.34562001 -0.29976001 -1.887
-0.34253001 -0.29982001 -1.8874
-0.33943999 -0.29989001 -1.8879
-0.33622 -0.29980001 -1.8873
-0.33326 -0.30002001 -1.8887
-0.33017001 -0.30008999 -1.8891
-0.32695001 -0.29999 -1.8885
-0.32374001 -0.2999 -1.8879
-0.32077 -0.30012 -1.8893
-0.31744 -0.29987001 -1.8877
-0.31423 -0.29977 -1.8871
-0.31101999 -0.29967999 -1.8865
-0.30805001 -0.29989001 -1.8879
-0.30461001 -0.29947999 -1.8853
-0.30153 -0.29954001 -1.8856
-0.29855999 -0.29975 -1.887
-0.29547 -0.29980001 -1.8873
-0.29238001 -0.29986 -1.8875999
-0.28929001 -0.29991001 -1.888
-0.28652 -0.30043 -1.8913
-0.28312001 -0.30001 -1.8886
-0.28003001 -0.30006 -1.8890001
-0.27682999 -0.29995999 -1.8882999
-0.27355 -0.29969001 -1.8866
-0.27035999 -0.29958999 -1.8859
-0.26747 -0.29993999 -1.8882
-0.26438001 -0.29999 -1.8885
-0.26129001 -0.30004001 -1.8888
-0.25784001 -0.29945999 -1.8851
-0.25466001 -0.29934001 -1.8844
-0.25158 -0.29938999 -1.8846999
-0.2485 -0.29943001 -1.885
-0.2455 -0.29962999 -1.8862
-0.24225 -0.29934999 -1.8845
-0.23917 -0.29938999 -1.8846999
-0.23624 -0.29973999 -1.8868999
-0.23331 -0.30008999 -1.8891
-0.23029 -0.30028999 -1.8904001
-0.22705001 -0.30001 -1.8886
-0.22396 -0.30004999 -1.8888
-0.2208 -0.29991999 -1.8881
-0.21758001 -0.29964 -1.8863
-0.21456 -0.29982999 -1.8875
-0.21134 -0.29955 -1.8857
-0.20832001 -0.29973999 -1.8868999
-0.20511 -0.29945999 -1.8851
-0.20215 -0.29980001 -1.8873
-0.19905999 -0.29982999 -1.8875
-0.19580001 -0.29938 -1.8846999
-0.19288 -0.29988 -1.8878
-0.1899 -0.30022001 -1.8899
-0.18681 -0.30024999 -1.8901
-0.18367 -0.30011001 -1.8893
-0.18043 -0.29967001 -1.8864
-0.17735 -0.29969001 -1.8866
-0.17422 -0.29955 -1.8857
-0.17109001 -0.29942 -1.8849
-0.16809 -0.29975 -1.887
-0.16504 -0.29993001 -1.8881
-0.16205999 -0.30041 -1.8911999
-0.15889999 -0.30012 -1.8893
-0.15571 -0.29966 -1.8864
-0.15262 -0.29967999 -1.8865
-0.14952999 -0.29969999 -1.8866
-0.14653 -0.30017999 -1.8897001
-0.14347 -0.30035001 -1.8908
-0.14035 -0.30021 -1.8898
-0.13719 -0.29975 -1.887
-0.13407999 -0.29960001 -1.886
-0.13101 -0.29977 -1.8871
-0.12797999 -0.30024999 -1.8901
-0.12489 -0.30024999 -1.8902
-0.12177 -0.29995 -1.8882
-0.11864 -0.29947999 -1.8853
-0.11555 -0.29933 -1.8843
-0.11247 -0.29934001 -1.8844
-0.1094 -0.29965001 -1.8864
-0.10632 -0.29980999 -1.8874
-0.10323 -0.29966 -1.8864
-0.10013 -0.29919001 -1.8835
-0.097053997 -0.29949999 -1.8854001
-0.093970001 -0.29949999 -1.8854001
-0.090875998 -0.29997 -1.8884
-0.087787002 -0.29997 -1.8884
-0.084697999 -0.29997 -1.8884
-0.081600003 -0.30012 -1.8893
-0.078509003 -0.30012 -1.8893
-0.075429998 -0.29995 -1.8882999
-0.072341003 -0.29995 -1.8882
-0.069252998 -0.29993999 -1.8882
-0.066164002 -0.29993001 -1.8881
-0.063074999 -0.29991999 -1.8881
-0.060006998 -0.29976001 -1.887
-0.056921002 -0.29975 -1.887
-0.053833999 -0.29973999 -1.8868999
-0.050721001 -0.29988 -1.8878
-0.047605 -0.30002001 -1.8887
-0.044516001 -0.30001 -1.8886
-0.041395001 -0.30015001 -1.8895
-0.038337 -0.29998001 -1.8884
-0.035248 -0.29995999 -1.8882999
-0.032195002 -0.29978999 -1.8872
-0.029030999 -0.30008 -1.8891
-0.025940999 -0.30006 -1.8890001
-0.022767 -0.30035999 -1.8908
-0.019761 -0.30002001 -1.8887
-0.016671 -0.30000001 -1.8886
-0.013582 -0.29998001 -1.8884
-0.010493 -0.29995999 -1.8882999
-0.0075050001 -0.29962 -1.8862
-0.0043675001 -0.29975 -1.887
-0.0012809 -0.29973 -1.8868001
0.0018612 -0.29986 -1.8875999
0.0049490002 -0.29982999 -1.8875
0.0080364002 -0.29980001 -1.8873
0.011307 -0.30024001 -1.8901
0.014461 -0.30037001 -1.8909
0.01749 -0.30017999 -1.8897001
0.020515 -0.29999 -1.8885
0.023537001 -0.29980001 -1.8873
0.026624 -0.29977 -1.8871
0.029782001 -0.29989001 -1.8879
0.032942999 -0.30001 -1.8886
0.036258001 -0.30045 -1.8914
0.039275002 -0.30024999 -1.8901
0.042210001 -0.2999 -1.8879
0.045058001 -0.29938999 -1.8846999
0.048059002 -0.2992 -1.8835
0.051474001 -0.29978001 -1.8872
0.054901998 -0.30037001 -1.8909
0.057907999 -0.30017 -1.8896
0.060911 -0.29997 -1.8884
0.063909002 -0.29977 -1.8871
0.067088 -0.29988 -1.8878
0.070270002 -0.29999 -1.8885
0.073454998 -0.3001 -1.8892
0.076642998 -0.30021 -1.8899
0.079735003 -0.30015999 -1.8896
0.082826003 -0.30011001 -1.8893
0.085711002 -0.29975 -1.887
0.088693 -0.29955 -1.8857
0.092202 -0.30012 -1.8893
0.094860002 -0.29944 -1.885
0.098163001 -0.29969999 -1.8867
0.10114 -0.29949 -1.8854001
0.10445 -0.29975 -1.887
0.10799 -0.30032 -1.8904999
0.11097 -0.3001 -1.8892
0.11406 -0.30004999 -1.8889
0.11727 -0.30013999 -1.8895
0.12048 -0.30024001 -1.8901
0.12357 -0.30017999 -1.8897001
0.12679 -0.30028 -1.8903
0.12988 -0.30021 -1.8899
0.13271999 -0.29984 -1.8875999
0.13553999 -0.29947001 -1.8852
0.13902 -0.29987001 -1.8877
0.14251 -0.30026999 -1.8903
0.14574 -0.30035999 -1.8908
0.14896999 -0.30045 -1.8914
0.15178999 -0.30006999 -1.8890001
0.15488 -0.30000001 -1.8886
0.15768 -0.29962 -1.8862
0.16178 -0.30063999 -1.8926001
0.16486999 -0.30057001 -1.8921
0.16797 -0.30048999 -1.8917
0.17076001 -0.30011001 -1.8893
0.17385 -0.30004001 -1.8888
0.17664 -0.29965001 -1.8864
0.17972 -0.29958001 -1.8859
0.18296 -0.29966 -1.8864
0.18668 -0.30019999 -1.8898
0.18945 -0.29980999 -1.8874
0.19238 -0.29958001 -1.8859
0.1953 -0.29934001 -1.8844
0.19855 -0.29942 -1.8849
0.20246001 -0.30011001 -1.8892
0.20555 -0.30002999 -1.8887
0.20863999 -0.29993999 -1.8882
0.21156 -0.29969999 -1.8867
0.21534 -0.30024001 -1.8901
0.22425 -0.29967001 -1.8865
0.22734 -0.29958001 -1.8859
0.23041999 -0.29949 -1.8853
0.23387 -0.29971001 -1.8867
0.23695999 -0.29962 -1.8862
0.24004 -0.29953 -1.8856
0.50063002 -0.24000999 -1.5109
-0.4434 -0.29758 -1.8839999
-0.43397 -0.29769999 -1.8848
-0.4307 -0.29764 -1.8845
-0.4278 -0.29787999 -1.886
-0.42471001 -0.29797 -1.8866
-0.42144999 -0.29791 -1.8862
-0.41835999 -0.29800001 -1.8867
-0.41528001 -0.29808 -1.8873
-0.41201001 -0.29802001 -1.8868001
-0.40875 -0.29795 -1.8864
-0.40531999 -0.29773 -1.885
-0.40257999 -0.29811999 -1.8875
-0.39932001 -0.29804999 -1.887
-0.39607 -0.29797 -1.8866
-0.39282 -0.29789999 -1.8861001
-0.38973001 -0.29798001 -1.8866
-0.38665 -0.29806 -1.8871
-0.38339999 -0.29798999 -1.8866
-0.38032001 -0.29806 -1.8871
-0.37707001 -0.29798999 -1.8866
-0.37399 -0.29806 -1.8871
-0.37136 -0.29859999 -1.8904999
-0.36811 -0.29852 -1.89
-0.36487001 -0.29844001 -1.8895
-0.36133999 -0.29804999 -1.887
-0.35795999 -0.29780999 -1.8855
-0.35501999 -0.29804 -1.887
-0.35207999 -0.29826 -1.8884
-0.34898999 -0.29833001 -1.8888
-0.3459 -0.29840001 -1.8892
-0.34281 -0.29846001 -1.8897001
-0.33985001 -0.29868999 -1.8911
-0.33649001 -0.29844001 -1.8895
-0.33340001 -0.29850999 -1.8899
-0.33030999 -0.29857001 -1.8903
-0.32721001 -0.29863 -1.8907
-0.32398999 -0.29854 -1.8902
-0.32077 -0.29844999 -1.8896
-0.31755999 -0.29835001 -1.8890001
-0.31423 -0.29809999 -1.8874
-0.31126001 -0.29832 -1.8887
-0.30816999 -0.29837999 -1.8891
-0.30508 -0.29843 -1.8895
-0.30186999 -0.29833001 -1.8888
-0.29866999 -0.29822999 -1.8882
-0.29558 -0.29829001 -1.8886
-0.29260001 -0.2985 -1.8899
-0.28994 -0.29916999 -1.8941
-0.28683999 -0.29922 -1.8945
-0.28321999 -0.2985 -1.8899
-0.28003001 -0.29839 -1.8892
-0.27704 -0.29859999 -1.8904999
-0.27394 -0.29865 -1.8908
-0.27074999 -0.29854 -1.8901
-0.26765999 -0.29859 -1.8904001
-0.26438001 -0.29832 -1.8888
-0.26137999 -0.29852 -1.89
-0.25784001 -0.29778999 -1.8854001
-0.25475001 -0.29782999 -1.8857
-0.25176001 -0.29802999 -1.8868999
-0.2491 -0.29885 -1.8921
-0.24608999 -0.29905 -1.8933001
-0.24274001 -0.29861999 -1.8906
-0.23932999 -0.29804 -1.887
-0.23632 -0.29822999 -1.8882
-0.23338 -0.29857999 -1.8904001
-0.23037 -0.29877001 -1.8916
-0.22727001 -0.29881001 -1.8918
-0.22389001 -0.29822001 -1.8881
-0.2208 -0.29824999 -1.8882999
-0.21771 -0.29829001 -1.8885
-0.21469 -0.29848 -1.8897001
-0.21160001 -0.29850999 -1.8899
-0.20857 -0.29868999 -1.8911
-0.20542 -0.29857001 -1.8903
-0.20238 -0.29875001 -1.8915
-0.19929001 -0.29877999 -1.8917
-0.19636001 -0.29927999 -1.8947999
-0.19315 -0.29899001 -1.893
-0.18995 -0.2987 -1.8911999
-0.18675999 -0.29842001 -1.8894
-0.18357 -0.29813001 -1.8875999
-0.18057001 -0.29846999 -1.8897001
-0.17757 -0.29879999 -1.8918
-0.17448001 -0.29881999 -1.8918999
-0.17134 -0.29868999 -1.8911
-0.16817001 -0.29839 -1.8892
-0.16515 -0.29872 -1.8913
-0.16205999 -0.29874 -1.8914
-0.15893 -0.29859999 -1.8906
-0.15571 -0.29800001 -1.8867
-0.15259001 -0.29786 -1.8858
-0.14956 -0.29818001 -1.8879
-0.14656 -0.29866001 -1.8909
-0.14347 -0.29868001 -1.891
-0.14035 -0.29853001 -1.8901
-0.13728 -0.2987 -1.8911999
-0.13412 -0.29824001 -1.8882999
-0.13107 -0.29857001 -1.8903
-0.12797999 -0.29857001 -1.8904001
-0.12489 -0.29857999 -1.8904001
-0.1218 -0.29859 -1.8904999
-0.11869 -0.29844001 -1.8895
-0.11561 -0.29859999 -1.8904999
-0.11252 -0.29861 -1.8906
-0.10943 -0.29877001 -1.8916
-0.10633 -0.29861 -1.8906
-0.10324 -0.29846001 -1.8896
-0.10014 -0.29798999 -1.8867
-0.097055003 -0.2983 -1.8887
-0.093969002 -0.29798999 -1.8867
-0.090883002 -0.29798999 -1.8867
-0.087792002 -0.29813999 -1.8875999
-0.08467 -0.29892001 -1.8926001
-0.081565 -0.29907 -1.8935
-0.078466997 -0.29907 -1.8935
-0.075393997 -0.29875001 -1.8915
-0.072355002 -0.29811999 -1.8875
-0.069268003 -0.29811001 -1.8875
-0.066180997 -0.29811001 -1.8874
-0.063018002 -0.29872 -1.8913
-0.059966002 -0.29840001 -1.8893
-0.05683 -0.2987 -1.8911999
-0.053736001 -0.29868999 -1.8911
-0.050643001 -0.29868001 -1.891
-0.047633 -0.29820001 -1.888
-0.044605002 -0.29787001 -1.8859
-0.041425999 -0.29832 -1.8888
-0.038337 -0.29831001 -1.8887
-0.035177998 -0.29859999 -1.8906
-0.032122001 -0.29843 -1.8895
-0.029030999 -0.29841 -1.8893
-0.025900999 -0.29855001 -1.8902
-0.022724999 -0.29883999 -1.8921
-0.019717 -0.29850999 -1.89
-0.016671 -0.29833001 -1.8888
-0.013629 -0.29815 -1.8877
-0.01059 -0.29798001 -1.8866
-0.0074544 -0.29811001 -1.8874
-0.0043675001 -0.29808 -1.8873
-0.0012268 -0.29821 -1.8881
0.0018612 -0.29819 -1.8879
0.0050065001 -0.29831001 -1.8887
0.0080957003 -0.29829001 -1.8885
0.011307 -0.29857001 -1.8903
0.014399 -0.29854 -1.8901
0.01749 -0.29850999 -1.8899
0.020648001 -0.29863 -1.8907
0.023809001 -0.29876 -1.8915
0.026833 -0.29857001 -1.8903
0.029925 -0.29853001 -1.8901
0.032942999 -0.29833999 -1.8889
0.036332998 -0.29892999 -1.8926001
0.039505001 -0.29905 -1.8934
0.042367 -0.29854 -1.8902
0.045379002 -0.29835001 -1.8889
0.048549999 -0.29846999 -1.8897001
0.051640999 -0.29843 -1.8894
0.054988001 -0.29885 -1.8921
0.057907999 -0.2985 -1.8899
0.061177 -0.29877001 -1.8916
0.064181 -0.29857001 -1.8903
0.06718 -0.29837 -1.8891
0.070175998 -0.29817 -1.8878
0.073358998 -0.29828 -1.8885
0.076448001 -0.29822999 -1.8882
0.079735003 -0.29848999 -1.8898
0.083129004 -0.29890999 -1.8925
0.086223997 -0.29886001 -1.8922
0.089215003 -0.29865 -1.8909
0.092308 -0.29859999 -1.8904999
0.095292002 -0.29840001 -1.8892
0.098491997 -0.2985 -1.8899
0.10169 -0.29859999 -1.8904999
0.10501 -0.29886001 -1.8921
0.10799 -0.29865 -1.8908
0.1112 -0.29874 -1.8914
0.1143 -0.29868999 -1.8911
0.11751 -0.29877999 -1.8917
0.1206 -0.29872 -1.8913
0.12382 -0.29881999 -1.8918999
0.12717 -0.29907 -1.8935
0.13026001 -0.29901001 -1.8931
0.13336 -0.29894999 -1.8927
0.13632999 -0.29872999 -1.8913
0.13955 -0.29881999 -1.8918999
0.14264999 -0.29875001 -1.8915
0.14588 -0.29883999 -1.8921
0.14883 -0.29861999 -1.8907
0.15193 -0.29855001 -1.8902
0.15544 -0.29894999 -1.8927
0.15810999 -0.29842001 -1.8894
0.16221 -0.29943001 -1.8958
0.16516 -0.2992 -1.8943
0.16797 -0.29881999 -1.8918999
0.17091 -0.29859 -1.8904999
0.17431 -0.29883 -1.892
0.17786001 -0.29922 -1.8944
0.1805 -0.29868001 -1.891
0.18406001 -0.29907 -1.8935
0.18684 -0.29868001 -1.891
0.18977 -0.29844999 -1.8896
0.1927 -0.29822001 -1.8881
0.19611999 -0.29844999 -1.8896
0.20589 -0.29866001 -1.8909
0.20897999 -0.29857999 -1.8904001
0.21156 -0.29804 -1.887
0.22425 -0.29800001 -1.8867
0.22734 -0.29791 -1.8862
0.24004 -0.29786 -1.8858
0.46226001 -0.22477999 -1.4231
-0.93299001 -0.26359001 -1.6805
-0.42163 -0.29604 -1.8874
-0.41528001 -0.29606 -1.8875999
-0.41218999 -0.29615 -1.8881
-0.4091 -0.29622999 -1.8887
-0.40566999 -0.29600999 -1.8873
-0.40274999 -0.29624999 -1.8888
-0.39965999 -0.29633 -1.8893
-0.39673999 -0.29655999 -1.8908
-0.39282 -0.29587999 -1.8864
-0.39039001 -0.29657 -1.8908
-0.38730001 -0.29664999 -1.8913
-0.38420001 -0.29673001 -1.8918
-0.38079 -0.2965 -1.8904001
-0.37785 -0.29673001 -1.8918
-0.37491 -0.29696 -1.8933001
-0.37182 -0.29703 -1.8938
-0.36872 -0.29710999 -1.8942
-0.36532 -0.29686999 -1.8928
-0.36237001 -0.29710001 -1.8942
-0.35927001 -0.29717001 -1.8946
-0.35589001 -0.29692999 -1.8931
-0.35279 -0.29699999 -1.8936
-0.34926999 -0.29661 -1.8911
-0.34630999 -0.29683 -1.8925
-0.34336001 -0.29705 -1.8939
-0.33998999 -0.29681 -1.8924
-0.33676001 -0.29672 -1.8918
-0.33353001 -0.29664001 -1.8911999
-0.33030999 -0.29655001 -1.8907
-0.32721001 -0.29661 -1.8911
-0.32425001 -0.29682001 -1.8924
-0.32089999 -0.29657999 -1.8909
-0.31781 -0.29664001 -1.8911999
-0.31496 -0.29699999 -1.8936
-0.31186 -0.29706001 -1.8940001
-0.30875999 -0.29712 -1.8943
-0.30520001 -0.29655999 -1.8908
-0.30199 -0.29646 -1.8901
-0.29877999 -0.29635999 -1.8895
-0.29603001 -0.29688001 -1.8928
-0.29282001 -0.29677999 -1.8922
-0.28983 -0.29699001 -1.8935
-0.28674001 -0.29703999 -1.8938
-0.28343001 -0.29677999 -1.8922
-0.28022999 -0.29668 -1.8915
-0.27713999 -0.29673001 -1.8918
-0.27404001 -0.29677001 -1.8921
-0.27114001 -0.29712999 -1.8944
-0.26804 -0.29718 -1.8947001
-0.26484999 -0.29707 -1.8940001
-0.26157001 -0.29679999 -1.8923
-0.25819999 -0.29639 -1.8896
-0.25511 -0.29642999 -1.8899
-0.25253999 -0.2974 -1.8961
-0.24952 -0.29758999 -1.8973
-0.24634001 -0.29747999 -1.8966
-0.24323 -0.29752001 -1.8969001
-0.23981 -0.29694 -1.8932
-0.23655 -0.29666999 -1.8915
-0.23361 -0.29701999 -1.8937
-0.23059 -0.29721001 -1.8949
-0.22757 -0.2974 -1.8961
-0.22431999 -0.29712 -1.8944
-0.22108001 -0.29685 -1.8926001
-0.21785 -0.29657 -1.8908
-0.21476001 -0.29661 -1.891
-0.21166 -0.29664001 -1.8911999
-0.20875999 -0.29712999 -1.8944
-0.20566 -0.29716 -1.8946
-0.20243999 -0.29688001 -1.8928
-0.19929001 -0.29675001 -1.892
-0.19619 -0.29677999 -1.8922
-0.19315 -0.29696 -1.8933001
-0.19 -0.29683 -1.8925
-0.18691 -0.29686001 -1.8927
-0.18381 -0.29688001 -1.8928
-0.18066999 -0.29675001 -1.892
-0.17761999 -0.29692999 -1.8931
-0.17448001 -0.29679 -1.8922
-0.17151 -0.29728001 -1.8953
-0.16824999 -0.29668 -1.8915
-0.16515 -0.2967 -1.8916
-0.16205999 -0.29672 -1.8917
-0.15899999 -0.29688999 -1.8928
-0.15587001 -0.29675001 -1.892
-0.15284 -0.29707 -1.8940001
-0.14968 -0.29677999 -1.8922
-0.14656 -0.29664001 -1.8913
-0.14343999 -0.2965 -1.8904001
-0.14035 -0.29651001 -1.8904001
-0.13726 -0.29651999 -1.8904999
-0.13416 -0.29653001 -1.8906
-0.13105001 -0.29639 -1.8896
-0.12796 -0.29639 -1.8897001
-0.12486 -0.29624999 -1.8888
-0.12177 -0.29624999 -1.8888
-0.11869 -0.29642001 -1.8898
-0.11563 -0.29688999 -1.8928
-0.11254 -0.29688999 -1.8929
-0.10946 -0.29736 -1.8958
-0.10634 -0.29674 -1.8918999
-0.10324 -0.29674 -1.8918999
-0.10015 -0.29659 -1.8909
-0.097055003 -0.29706001 -1.8939
-0.093960002 -0.29675001 -1.8918999
-0.090859003 -0.29705 -1.8939
-0.087770998 -0.29674 -1.8918999
-0.084628001 -0.29782 -1.8988
-0.081547998 -0.29736 -1.8958
-0.078456998 -0.29719999 -1.8947999
-0.075382002 -0.29688001 -1.8928
-0.072286002 -0.29686999 -1.8928
-0.069112003 -0.29764 -1.8977
-0.066059001 -0.29717001 -1.8946
-0.062922001 -0.29747 -1.8966
-0.059882 -0.29699999 -1.8935
-0.056738999 -0.29729 -1.8954
-0.053711999 -0.29682001 -1.8924
-0.050563999 -0.29712 -1.8943
-0.04755 -0.29664001 -1.8913
-0.044397 -0.29692999 -1.8931
-0.041363001 -0.29661 -1.8911
-0.038237002 -0.29675001 -1.892
-0.035177998 -0.29657999 -1.8909
-0.032012001 -0.29686999 -1.8927
-0.028955 -0.2967 -1.8916
-0.025741 -0.29714 -1.8945
-0.022558 -0.29743001 -1.8963
-0.019412 -0.29756999 -1.8972
-0.016535001 -0.29677001 -1.8921
-0.013488 -0.29660001 -1.891
-0.010395 -0.29657 -1.8908
-0.0072520999 -0.2967 -1.8917
-0.0042106002 -0.29651999 -1.8904999
-0.0010107 -0.29681 -1.8923
0.0022517 -0.29725 -1.8951
0.0053516999 -0.29721999 -1.895
0.0081550004 -0.29642001 -1.8898
0.011307 -0.29653999 -1.8906
0.014399 -0.29651001 -1.8904999
0.017555 -0.29664001 -1.8911999
0.020648001 -0.29661 -1.891
0.024013 -0.29719001 -1.8947999
0.026833 -0.29653999 -1.8906
0.030211 -0.29712999 -1.8944
0.032942999 -0.29631999 -1.8892
0.036332998 -0.2969 -1.8929
0.039429002 -0.29686001 -1.8927
0.042838 -0.29743999 -1.8964
0.045699 -0.29694 -1.8932
0.048877999 -0.29706001 -1.8939
0.051892001 -0.29686001 -1.8927
0.055073 -0.29697999 -1.8934
0.058169998 -0.29694 -1.8932
0.061622001 -0.29751 -1.8968
0.064634003 -0.29730999 -1.8956
0.06718 -0.29633999 -1.8894
0.070270002 -0.29629999 -1.8891
0.073934004 -0.29718 -1.8947001
0.077326 -0.29758999 -1.8974
0.080132 -0.29708001 -1.8941
0.083230004 -0.29703999 -1.8938
0.086223997 -0.29683 -1.8925
0.089423999 -0.29694 -1.8932
0.092626996 -0.29703999 -1.8938
0.095615998 -0.29683 -1.8925
0.098820999 -0.29694 -1.8932
0.10192 -0.29688001 -1.8928
0.10513 -0.29697999 -1.8934
0.10822 -0.29692999 -1.8931
0.11179 -0.29749 -1.8967
0.11477 -0.29728001 -1.8953
0.11727 -0.29644999 -1.89
0.12036 -0.29639 -1.8897001
0.12345 -0.29633 -1.8893
0.12679 -0.29657999 -1.8909
0.13000999 -0.29666999 -1.8915
0.13336 -0.29692 -1.893
0.13672 -0.29716 -1.8946
0.13968 -0.29694 -1.8932
0.14278001 -0.29688001 -1.8928
0.14588 -0.29681 -1.8924
0.14911 -0.2969 -1.8929
0.15276 -0.29745001 -1.8964
0.15586001 -0.29738 -1.896
0.15910999 -0.29747 -1.8965
0.16221 -0.2974 -1.8961
0.16531 -0.29732999 -1.8956
0.16797 -0.29679 -1.8922
0.17136 -0.29703 -1.8937
0.17445999 -0.29696 -1.8933001
0.17817 -0.29749 -1.8967
0.18081 -0.29696 -1.8933001
0.18406001 -0.29703999 -1.8938
0.18716 -0.29696 -1.8933001
0.19009 -0.29673001 -1.8918
0.19318999 -0.29664999 -1.8913
0.19628 -0.29657 -1.8908
0.20897999 -0.29655999 -1.8907
0.46612 -0.22367001 -1.426
-0.40944999 -0.29484999 -1.8909
-0.40617999 -0.29477999 -1.8904001
-0.40325999 -0.29502001 -1.8918999
-0.39706999 -0.29517999 -1.893
-0.39381 -0.29510999 -1.8925
-0.39071 -0.29519001 -1.893
-0.38745999 -0.29512 -1.8926001
-0.38435999 -0.29519001 -1.8931
-0.38111001 -0.29512 -1.8926001
-0.37801 -0.29519001 -1.8931
-0.37491 -0.29527 -1.8936
-0.37182 -0.29534 -1.8940001
-0.36872 -0.29541999 -1.8945
-0.36532 -0.29517999 -1.893
-0.36237001 -0.29541001 -1.8945
-0.35957 -0.29578 -1.8969001
-0.35631999 -0.29570001 -1.8963
-0.35293001 -0.29547 -1.8947999
-0.34983 -0.29554 -1.8953
-0.34687001 -0.29576001 -1.8967
-0.34362999 -0.29567 -1.8961
-0.34053001 -0.29574001 -1.8965
-0.33689001 -0.29519001 -1.893
-0.33353001 -0.29495001 -1.8915
-0.33057001 -0.29516 -1.8929
-0.3276 -0.29538 -1.8943
-0.32449999 -0.29543999 -1.8947001
-0.32139999 -0.29550001 -1.895
-0.31805 -0.29526001 -1.8935
-0.31507999 -0.29547 -1.8947999
-0.31174001 -0.29521999 -1.8932
-0.30875999 -0.29543 -1.8946
-0.30577999 -0.29563999 -1.8959
-0.30232999 -0.29524001 -1.8933001
-0.29945999 -0.2956 -1.8957
-0.29613999 -0.29534999 -1.8940001
-0.29293001 -0.29525 -1.8934
-0.28940001 -0.29469001 -1.8898
-0.28652 -0.29504001 -1.8921
-0.28374001 -0.29554999 -1.8954
-0.28064001 -0.2956 -1.8957
-0.27733999 -0.29534999 -1.8940001
-0.27414 -0.29524001 -1.8934
-0.27114001 -0.29543999 -1.8947001
-0.26804 -0.29549 -1.895
-0.26513001 -0.29584 -1.8972
-0.26175001 -0.29541999 -1.8945
-0.25865 -0.29547 -1.8947999
-0.25538 -0.29519999 -1.8931
-0.25263 -0.29585999 -1.8973
-0.24952 -0.29589999 -1.8976001
-0.24634001 -0.29578999 -1.8969001
-0.24323 -0.29583001 -1.8971
-0.24005 -0.29571 -1.8964
-0.23695 -0.29574999 -1.8966
-0.23368999 -0.29548001 -1.8949
-0.23089001 -0.29613 -1.8990999
-0.22764 -0.29585999 -1.8973
-0.22453 -0.29589999 -1.8976001
-0.22136 -0.29578 -1.8968
-0.21811999 -0.29550001 -1.895
-0.21509001 -0.29569 -1.8961999
-0.21212 -0.29603001 -1.8983999
-0.20907 -0.29620999 -1.8996
-0.20578 -0.29578 -1.8968
-0.20262 -0.29565001 -1.896
-0.19935 -0.29521999 -1.8932
-0.19625001 -0.29525 -1.8934
-0.19315 -0.29527 -1.8936
-0.19006 -0.29530001 -1.8937
-0.18696 -0.29532 -1.8939
-0.18381 -0.29519001 -1.8931
-0.18072 -0.29521999 -1.8932
-0.17757 -0.29508001 -1.8924
-0.17452 -0.29526001 -1.8935
-0.17138 -0.29513001 -1.8926001
-0.16824999 -0.29499 -1.8918
-0.16515 -0.29501 -1.8918999
-0.1621 -0.29517999 -1.893
-0.15907 -0.29550999 -1.8951
-0.15597001 -0.29552001 -1.8952
-0.15287 -0.29554 -1.8953
-0.14968 -0.29508999 -1.8924
-0.14667 -0.29556999 -1.8954999
-0.14354999 -0.29543 -1.8946
-0.14045 -0.29543999 -1.8946
-0.13734999 -0.29545 -1.8947001
-0.13421001 -0.29515001 -1.8928
-0.13115001 -0.29547 -1.8947999
-0.12807 -0.29563001 -1.8959
-0.12495 -0.29549 -1.895
-0.12182 -0.29519001 -1.893
-0.11872 -0.29504001 -1.8921
-0.11563 -0.29519999 -1.8931
-0.11254 -0.29536 -1.8941
-0.10945 -0.29550999 -1.8951
-0.10634 -0.29521 -1.8932
-0.10325 -0.29536 -1.8942
-0.10015 -0.29521 -1.8932
-0.097055003 -0.29552001 -1.8952
-0.093955003 -0.29552001 -1.8952
-0.090842001 -0.29613999 -1.8990999
-0.087745003 -0.29582 -1.8971
-0.084628001 -0.29613 -1.8990999
-0.081538998 -0.29582 -1.8971
-0.078446001 -0.29565999 -1.8961
-0.075345002 -0.29565001 -1.896
-0.072258003 -0.29549 -1.895
-0.069159001 -0.29549 -1.895
-0.065990001 -0.29609999 -1.8989
-0.062863998 -0.29624 -1.8997999
-0.059756 -0.29622999 -1.8997
-0.056671001 -0.29607001 -1.8987
-0.053614002 -0.29574999 -1.8966
-0.050512001 -0.29574001 -1.8965
-0.047382001 -0.29587999 -1.8974
-0.044279002 -0.29585999 -1.8974
-0.041175 -0.29585001 -1.8973
-0.038072001 -0.29583001 -1.8972
-0.034933999 -0.29596999 -1.8981
-0.031829 -0.29595 -1.8979
-0.028725 -0.29594001 -1.8978
-0.025660001 -0.29576001 -1.8967
-0.022558 -0.29574001 -1.8966
-0.019455999 -0.29572001 -1.8965
-0.016445 -0.29539001 -1.8944
-0.013394 -0.29521999 -1.8932
-0.010297 -0.29519001 -1.8931
-0.0071005002 -0.29548001 -1.8949
-0.0040014 -0.29545 -1.8947001
-0.00068637001 -0.29604 -1.8985
0.0022517 -0.29556 -1.8954
0.0054668002 -0.29584 -1.8972
0.0084512997 -0.29550001 -1.895
0.011429 -0.29516 -1.8929
0.014399 -0.29482999 -1.8907
0.017555 -0.29495001 -1.8915
0.020648001 -0.29492 -1.8913
0.023945 -0.29534999 -1.8941
0.027251 -0.29578 -1.8968
0.030354001 -0.29574001 -1.8966
0.033309001 -0.29539999 -1.8944
0.036332998 -0.29521 -1.8932
0.039581999 -0.29548001 -1.8949
0.042681001 -0.29545 -1.8947001
0.045940001 -0.29571 -1.8964
0.049205001 -0.29598001 -1.8981
0.052393999 -0.29609999 -1.8989
0.055243999 -0.2956 -1.8957
0.058169998 -0.29525 -1.8934
0.061533 -0.29567 -1.8961
0.064723998 -0.29578 -1.8968
0.067827001 -0.29572999 -1.8965
0.071211003 -0.29615 -1.8992
0.074221998 -0.29595 -1.8979
0.077326 -0.29589999 -1.8976001
0.080031998 -0.29524001 -1.8934
0.083230004 -0.29534999 -1.8941
0.086121999 -0.29499 -1.8918
0.089529 -0.29539999 -1.8944
0.092733003 -0.29550001 -1.8951
0.095831998 -0.29545 -1.8947001
0.099370003 -0.29600999 -1.8983001
0.10236 -0.29581001 -1.897
0.10547 -0.29574999 -1.8967
0.1088 -0.296 -1.8983001
0.11179 -0.2958 -1.8969001
0.11477 -0.29559001 -1.8956
0.11763 -0.29521999 -1.8933001
0.12085 -0.29532 -1.8939
0.12407 -0.29541001 -1.8945
0.12717 -0.29534999 -1.8941
0.13026001 -0.29528999 -1.8937
0.13349 -0.29538 -1.8943
0.13685 -0.29561999 -1.8958
0.14035 -0.29602 -1.8983999
0.14345001 -0.29596001 -1.898
0.14655 -0.29589 -1.8975
0.14925 -0.29537001 -1.8942
0.15248001 -0.29545 -1.8947001
0.15558 -0.29538 -1.8943
0.15939 -0.29607999 -1.8987
0.16235 -0.29585999 -1.8973
0.1656 -0.29594001 -1.8979
0.16841 -0.29556 -1.8954
0.17181 -0.2958 -1.8969001
0.17476 -0.29556999 -1.8954999
0.17801 -0.29565001 -1.896
0.18096 -0.29541999 -1.8945
0.18406001 -0.29534999 -1.8941
0.18731 -0.29541999 -1.8946
0.19024999 -0.29519999 -1.8931
0.19367 -0.29541999 -1.8945
0.19644 -0.29504001 -1.8921
0.64731002 -0.25703001 -1.6483001
-0.95903999 -0.23963 -1.5469
-0.40617999 -0.29289001 -1.8907
-0.40325999 -0.29313001 -1.8922
-0.38451999 -0.29345 -1.8943
-0.38141999 -0.29352999 -1.8947999
-0.37832001 -0.29359999 -1.8953
-0.37522 -0.29368001 -1.8958
-0.37182 -0.29345 -1.8943
-0.36886999 -0.29367 -1.8958
-0.36546999 -0.29344001 -1.8943
-0.36252001 -0.29367 -1.8957
-0.35942 -0.29374 -1.8961999
-0.35646001 -0.29396001 -1.8976001
-0.35321999 -0.29387999 -1.8971
-0.35025001 -0.29409999 -1.8985
-0.34700999 -0.29401001 -1.8979
-0.34391001 -0.29407999 -1.8983999
-0.34066001 -0.29398999 -1.8978
-0.33769 -0.29420999 -1.8992
-0.33406001 -0.29366001 -1.8957
-0.33096001 -0.29372999 -1.8961
-0.32786 -0.29379001 -1.8965
-0.32501 -0.29414999 -1.8989
-0.32165 -0.29391 -1.8973
-0.31843001 -0.29381999 -1.8967
-0.3152 -0.29372999 -1.8961
-0.31222001 -0.29394001 -1.8975
-0.30912 -0.29398999 -1.8978
-0.30612999 -0.2942 -1.8992
-0.30245 -0.29350001 -1.8946
-0.29980001 -0.29416001 -1.8989
-0.29646999 -0.29391 -1.8973
-0.29359001 -0.29427001 -1.8996
-0.28994 -0.29356 -1.895
-0.28716001 -0.29405999 -1.8983001
-0.28385001 -0.29381001 -1.8967
-0.28075001 -0.29385999 -1.897
-0.27764001 -0.29391 -1.8973
-0.27443999 -0.2938 -1.8966
-0.27153 -0.29416001 -1.8989
-0.26833001 -0.29405001 -1.8982
-0.26523 -0.29409999 -1.8985
-0.26221001 -0.29429001 -1.8997999
-0.25892001 -0.29403001 -1.8981
-0.25582001 -0.29407001 -1.8983999
-0.25263 -0.29396001 -1.8976001
-0.24952 -0.294 -1.8979
-0.24617 -0.29359001 -1.8952
-0.24323 -0.29392999 -1.8974
-0.23997 -0.29367 -1.8957
-0.23687001 -0.29370001 -1.896
-0.23377 -0.29374 -1.8961999
-0.23074 -0.29392999 -1.8974
-0.22770999 -0.29412001 -1.8986
-0.22461 -0.29414999 -1.8989
-0.22143 -0.29403001 -1.8981
-0.21853 -0.29451999 -1.9013
-0.21541999 -0.29455999 -1.9015
-0.21224999 -0.29442999 -1.9007
-0.20914 -0.29446 -1.9009
-0.2059 -0.29418999 -1.8990999
-0.20286 -0.29437 -1.9003
-0.19963001 -0.29409 -1.8985
-0.19631 -0.29350999 -1.8947001
-0.19315 -0.29337999 -1.8939
-0.19021 -0.29385999 -1.897
-0.18716 -0.29403999 -1.8981
-0.18391 -0.29361001 -1.8953
-0.18081 -0.29363 -1.8954999
-0.1778 -0.29396001 -1.8976001
-0.17470001 -0.29398 -1.8977
-0.17168 -0.29429999 -1.8997999
-0.16853 -0.29416999 -1.899
-0.16542 -0.29418999 -1.8990999
-0.16224 -0.29390001 -1.8972
-0.15918 -0.29407001 -1.8983001
-0.15606999 -0.29409 -1.8983999
-0.153 -0.29426 -1.8995
-0.14983 -0.29396999 -1.8977
-0.14687 -0.29473999 -1.9026999
-0.1436 -0.29383999 -1.8968
-0.14052001 -0.294 -1.8979
-0.13737001 -0.29370999 -1.896
-0.13423 -0.29341 -1.8941
-0.13117 -0.29372999 -1.8961
-0.12809999 -0.29403999 -1.8982
-0.12503 -0.29436001 -1.9002
-0.12191 -0.29420999 -1.8992
-0.11878 -0.29391 -1.8973
-0.11566 -0.29376 -1.8964
-0.11256 -0.29376999 -1.8964
-0.10947 -0.29392999 -1.8974
-0.10636 -0.29392999 -1.8974
-0.10326 -0.29407999 -1.8983999
-0.10016 -0.29378 -1.8964
-0.097055003 -0.29392999 -1.8974
-0.093956999 -0.29347 -1.8945
-0.090852 -0.29378 -1.8964
-0.087756 -0.29361999 -1.8954
-0.084642 -0.29392999 -1.8974
-0.081582002 -0.29315999 -1.8924
-0.078426003 -0.29407001 -1.8983001
-0.075309001 -0.29422 -1.8993
-0.072159998 -0.29466999 -1.9022
-0.069112003 -0.29405001 -1.8982
-0.065990001 -0.2942 -1.8990999
-0.062882997 -0.29418999 -1.8990999
-0.059776999 -0.29418001 -1.899
-0.056648999 -0.29431999 -1.9
-0.053566001 -0.29416001 -1.8989
-0.050485998 -0.29398999 -1.8978
-0.04741 -0.29383001 -1.8968
-0.044279002 -0.29396999 -1.8977
-0.041111998 -0.29426 -1.8995
-0.038005002 -0.29424 -1.8994
-0.034899 -0.29423001 -1.8993
-0.031792 -0.29420999 -1.8992
-0.028686 -0.29418999 -1.8990999
-0.02562 -0.29402 -1.898
-0.022558 -0.29385 -1.8969001
-0.019369001 -0.29413 -1.8987
-0.016309001 -0.29396001 -1.8976001
-0.013064 -0.29440001 -1.9004
-0.010053 -0.29407001 -1.8983001
-0.0068982001 -0.2942 -1.8990999
-0.0039491002 -0.29370999 -1.896
-0.00068637001 -0.29414999 -1.8988
0.0022517 -0.29366001 -1.8957
0.0055817999 -0.29425001 -1.8995
0.0085698999 -0.29391 -1.8973
0.011673 -0.29387999 -1.8971
0.014712 -0.29370001 -1.8959
0.017813001 -0.29367 -1.8958
0.021044999 -0.29394999 -1.8975
0.024148 -0.29391 -1.8973
0.027321 -0.29403001 -1.8981
0.030497 -0.29414999 -1.8989
0.033822 -0.29458001 -1.9016
0.036706999 -0.29407999 -1.8983999
0.039965 -0.29435 -1.9001
0.042916 -0.29401001 -1.8979
0.046100002 -0.29412001 -1.8987
0.049369 -0.29438999 -1.9004
0.052476998 -0.29435 -1.9001
0.055500001 -0.29416001 -1.8989
0.058431 -0.29381001 -1.8967
0.061622001 -0.29392001 -1.8974
0.064815 -0.29403001 -1.8981
0.068011001 -0.29414001 -1.8988
0.071116999 -0.29409999 -1.8985
0.074221998 -0.29405001 -1.8982
0.077326 -0.29401001 -1.8979
0.080430001 -0.29396001 -1.8976001
0.083633997 -0.29405999 -1.8983001
0.086737998 -0.29401001 -1.898
0.089947 -0.29412001 -1.8986
0.092839003 -0.29376 -1.8963
0.096263997 -0.29416999 -1.899
0.099150002 -0.29381001 -1.8967
0.1027 -0.29437 -1.9002
0.10581 -0.29431 -1.8999
0.10903 -0.29440999 -1.9005001
0.11179 -0.29390001 -1.8972
0.11477 -0.29369 -1.8959
0.11787 -0.29363 -1.8954999
0.12109 -0.29372999 -1.8961
0.12432 -0.29381999 -1.8967
0.12804 -0.29451999 -1.9012001
0.13115001 -0.29446 -1.9008
0.13426 -0.29440001 -1.9005001
0.13698 -0.29387999 -1.8971
0.14035 -0.29412001 -1.8987
0.14358 -0.29420999 -1.8992
0.14696001 -0.29445001 -1.9008
0.15007 -0.29438001 -1.9003
0.1529 -0.29401001 -1.898
0.15572 -0.29363999 -1.8956
0.15882 -0.29358 -1.8951
0.16249999 -0.29411 -1.8986
0.16546001 -0.29389 -1.8972
0.16870999 -0.29396999 -1.8977
0.17166001 -0.29374999 -1.8963
0.17490999 -0.29383001 -1.8968
0.17756 -0.2933 -1.8934
0.18096 -0.29352999 -1.8947999
0.18421 -0.29361001 -1.8953
-0.37832001 -0.29168999 -1.8956
-0.37522 -0.29177001 -1.8961
-0.37228 -0.29199001 -1.8976001
-0.36296001 -0.29221001 -1.899
-0.35942 -0.29183 -1.8965
-0.35646001 -0.29205 -1.8979
-0.35336 -0.29212001 -1.8983001
-0.34742999 -0.29255 -1.9012001
-0.34391001 -0.29216 -1.8987
-0.34066001 -0.29207999 -1.8981
-0.33783001 -0.29245001 -1.9005001
-0.33471999 -0.29251 -1.9009
-0.33135 -0.29227 -1.8994
-0.32811001 -0.29218 -1.8988
-0.32563999 -0.29300001 -1.9040999
-0.32214999 -0.29260001 -1.9015
-0.31891999 -0.29251 -1.9009
-0.31531999 -0.29197001 -1.8974
-0.31222001 -0.29201999 -1.8978
-0.30923 -0.29223001 -1.8990999
-0.30590001 -0.29199001 -1.8975
-0.30325001 -0.29265001 -1.9018
-0.29980001 -0.29225001 -1.8992
-0.29692 -0.29260001 -1.9015
-0.29370001 -0.29249999 -1.9009
-0.29047999 -0.2924 -1.9002
-0.28705999 -0.292 -1.8976001
-0.28406 -0.2922 -1.8989
-0.28105 -0.2924 -1.9002
-0.27814999 -0.29275 -1.9025
-0.27494001 -0.29265001 -1.9018
-0.27173001 -0.29255 -1.9011
-0.26862001 -0.29258999 -1.9014
-0.26532 -0.29233 -1.8997999
-0.26231 -0.29253 -1.901
-0.25911 -0.29242 -1.9003
-0.25591001 -0.29231 -1.8996
-0.25263 -0.29205 -1.8979
-0.24961001 -0.29223999 -1.8992
-0.24642 -0.29212999 -1.8985
-0.24323 -0.29201999 -1.8977
-0.24013001 -0.29205999 -1.898
-0.23717999 -0.2924 -1.9002
-0.23415001 -0.29258999 -1.9014
-0.23104 -0.29262 -1.9017
-0.22786 -0.29251 -1.9009
-0.22461 -0.29223999 -1.8990999
-0.22157 -0.29242 -1.9004
-0.21845999 -0.29245999 -1.9006
-0.21541999 -0.29264 -1.9018
-0.21231 -0.29267001 -1.902
-0.20931999 -0.29300001 -1.9040999
-0.20609 -0.29273 -1.9023
-0.20304 -0.29291001 -1.9035
-0.19986001 -0.29279 -1.9026999
-0.19657999 -0.29236001 -1.8999
-0.19359 -0.29269001 -1.9021
-0.19047 -0.29271001 -1.9022
-0.18736 -0.29273999 -1.9024
-0.1842 -0.29260999 -1.9016
-0.18099999 -0.29233 -1.8997
-0.17784999 -0.2922 -1.8989
-0.17487 -0.29267001 -1.902
-0.17168 -0.29238999 -1.9001
-0.16857 -0.29240999 -1.9003
-0.16546001 -0.29243001 -1.9004
-0.16238999 -0.29260001 -1.9015
-0.15934999 -0.29291999 -1.9036
-0.15606999 -0.29218 -1.8987
-0.15306 -0.29265001 -1.9018
-0.14995 -0.29266 -1.9019001
-0.14701 -0.29359001 -1.9079
-0.14373 -0.29269001 -1.9021
-0.14061999 -0.29269999 -1.9021
-0.13745999 -0.29240999 -1.9002
-0.13435 -0.29242 -1.9003
-0.13124999 -0.29243001 -1.9004
-0.12816 -0.29258999 -1.9014
-0.12506001 -0.29275 -1.9025
-0.12192 -0.29245001 -1.9005001
-0.1188 -0.29229999 -1.8996
-0.11569 -0.29231 -1.8996
-0.11261 -0.29262 -1.9016
-0.10949 -0.29247001 -1.9007
-0.10637 -0.29232001 -1.8997
-0.10328 -0.29262999 -1.9017
-0.10017 -0.29308999 -1.9046
-0.097055003 -0.29293001 -1.9037
-0.093947999 -0.29232001 -1.8997
-0.090845004 -0.29216999 -1.8987
-0.087739997 -0.29216999 -1.8987
-0.084634997 -0.29216999 -1.8987
-0.081547998 -0.29186001 -1.8967
-0.078414999 -0.29231 -1.8996
-0.075283997 -0.29260999 -1.9016
-0.072159998 -0.29275 -1.9025
-0.069080003 -0.29244 -1.9005001
-0.065990001 -0.29227999 -1.8994
-0.062863998 -0.29243001 -1.9004
-0.059756 -0.29242 -1.9003
-0.056558002 -0.29302001 -1.9042
-0.053491998 -0.29269999 -1.9022
-0.050354999 -0.29284 -1.9031
-0.047270998 -0.29268 -1.902
-0.044101 -0.29297 -1.9039
-0.040987 -0.29295 -1.9038
-0.037873 -0.29293999 -1.9037
-0.034724001 -0.29306999 -1.9046
-0.031792 -0.29229999 -1.8995
-0.028686 -0.29227999 -1.8994
-0.02562 -0.29211 -1.8983001
-0.022431999 -0.29238999 -1.9001
-0.019369001 -0.29222 -1.899
-0.016263001 -0.2922 -1.8989
-0.013158 -0.29218 -1.8987
-0.010053 -0.29214999 -1.8986
-0.0071005002 -0.29166999 -1.8954999
-0.0037920999 -0.29225999 -1.8993
-0.00057827 -0.29254001 -1.9011
0.0025307001 -0.29251 -1.9009
0.0055817999 -0.29233 -1.8997999
0.0087476997 -0.29245999 -1.9006
0.011795 -0.29227999 -1.8994
0.014963 -0.2924 -1.9002
0.018006001 -0.29222 -1.899
0.021178 -0.29234001 -1.8997999
0.024284 -0.29231 -1.8996
0.027391 -0.29227 -1.8994
0.030424999 -0.29209 -1.8982
0.033601999 -0.29221001 -1.8989
0.037007 -0.29278001 -1.9026
0.040119 -0.29273999 -1.9024
0.043072999 -0.2924 -1.9002
0.046179999 -0.29236001 -1.9
0.049369 -0.29247999 -1.9007
0.052561 -0.29258999 -1.9014
0.055755999 -0.29269999 -1.9021
0.058867 -0.29266 -1.9019001
0.062155001 -0.29291999 -1.9036
0.065268002 -0.29288 -1.9033
0.068287998 -0.29268 -1.902
0.071211003 -0.29234001 -1.8997999
0.074317001 -0.29229 -1.8995
0.077619001 -0.29255 -1.9012001
0.080628 -0.29234999 -1.8999
0.084037997 -0.29276001 -1.9025
0.087149002 -0.29271001 -1.9022
0.090259999 -0.29266 -1.9019001
0.093477003 -0.29276001 -1.9025
0.096588001 -0.29271001 -1.9022
0.099478997 -0.29234999 -1.8999
0.10247 -0.29214999 -1.8986
0.10581 -0.2924 -1.9002
0.10937 -0.29295 -1.9038
0.1126 -0.29304999 -1.9044
0.11524 -0.29238001 -1.9001
0.11859 -0.29262999 -1.9017
0.12121 -0.29197001 -1.8974
0.12481 -0.29251 -1.9009
0.12829 -0.29291001 -1.9035
0.13141 -0.29284999 -1.9031
0.13465001 -0.29293999 -1.9037
0.14060999 -0.29251 -1.9009
0.14358 -0.29229999 -1.8995
0.14669 -0.29223001 -1.8990999
0.15020999 -0.29262 -1.9016
0.15332 -0.29255 -1.9012001
0.61522001 -0.24273001 -1.5774
-0.35054001 -0.29036999 -1.9011
-0.34742999 -0.29043001 -1.9015
-0.34432 -0.29049999 -1.9019001
-0.34107 -0.29041001 -1.9014
-0.33471999 -0.29039001 -1.9012001
-0.33083001 -0.28955999 -1.8958
-0.32786 -0.28977001 -1.8971
-0.32539001 -0.29058 -1.9024
-0.32227999 -0.29064 -1.9028
-0.31929001 -0.29084 -1.9042
-0.31617999 -0.29089999 -1.9046
-0.31246001 -0.29021001 -1.9
-0.30935001 -0.29027 -1.9004
-0.30636001 -0.29047 -1.9018
-0.30360001 -0.29098001 -1.9051
-0.30037001 -0.29087999 -1.9044
-0.29703 -0.29063001 -1.9028
-0.29348001 -0.29008999 -1.8992
-0.29069999 -0.29058999 -1.9025
-0.28769001 -0.29078999 -1.9038
-0.28446999 -0.29069 -1.9032
-0.28126001 -0.29058999 -1.9025
-0.27805001 -0.29047999 -1.9018
-0.27484 -0.29038 -1.9012001
-0.27162999 -0.29028001 -1.9005001
-0.26862001 -0.29047 -1.9018
-0.26550999 -0.29052001 -1.9021
-0.26258001 -0.29086 -1.9043
-0.25946999 -0.29091001 -1.9046
-0.25626001 -0.29080001 -1.9039
-0.25297999 -0.29054001 -1.9022
-0.24978 -0.29043001 -1.9015
-0.24666999 -0.29047 -1.9017
-0.24356 -0.29051 -1.902
-0.24044999 -0.29054999 -1.9022
-0.2375 -0.29089001 -1.9045
-0.23423 -0.29062 -1.9026999
-0.23112001 -0.29065999 -1.903
-0.22786 -0.29039001 -1.9012001
-0.22468001 -0.29027 -1.9005001
-0.22164001 -0.29045999 -1.9017
-0.21853 -0.29049 -1.9019001
-0.21541999 -0.29052001 -1.9021
-0.21231 -0.29054999 -1.9023
-0.20931999 -0.29087999 -1.9045
-0.20621 -0.29091001 -1.9046
-0.20304 -0.29078999 -1.9038
-0.19969 -0.29021999 -1.9001
-0.19670001 -0.29054001 -1.9022
-0.19391 -0.29146999 -1.9083
-0.19068 -0.29120001 -1.9065
-0.18762 -0.29137 -1.9076999
-0.18440001 -0.29109001 -1.9058
-0.18142 -0.29157001 -1.9089
-0.17816 -0.29113999 -1.9061
-0.17487 -0.29056001 -1.9023
-0.17168 -0.29027 -1.9005001
-0.16865 -0.2906 -1.9026
-0.16558 -0.29076999 -1.9037
-0.16246 -0.29078001 -1.9038
-0.15939 -0.29095 -1.9049
-0.1561 -0.29021001 -1.9001
-0.15302999 -0.29038 -1.9011
-0.14992 -0.29039001 -1.9012001
-0.1469 -0.29086 -1.9043
-0.14375 -0.29071999 -1.9033999
-0.14059 -0.29043001 -1.9015
-0.13753 -0.29074001 -1.9035
-0.13437 -0.29045001 -1.9016
-0.1313 -0.29076001 -1.9037
-0.12816 -0.29047 -1.9017
-0.12506001 -0.29063001 -1.9028
-0.12194 -0.29047999 -1.9018
-0.1188 -0.29019001 -1.8999
-0.11572 -0.29049999 -1.9019001
-0.11263 -0.29095 -1.9049
-0.10951 -0.29080999 -1.9039
-0.1064 -0.29080999 -1.904
-0.10328 -0.29080999 -1.904
-0.10017 -0.29111001 -1.906
-0.097055003 -0.29111001 -1.906
-0.093941003 -0.29080999 -1.904
-0.090828001 -0.29080999 -1.904
-0.087719001 -0.29065999 -1.903
-0.084587 -0.29111001 -1.9059
-0.081487 -0.29080001 -1.9039
-0.078373 -0.29080001 -1.9039
-0.075259998 -0.29078999 -1.9039
-0.072159998 -0.29064 -1.9028
-0.069017 -0.29093 -1.9048001
-0.065902002 -0.29091999 -1.9047
-0.062767997 -0.29107001 -1.9056
-0.059673 -0.29091001 -1.9046
-0.056581002 -0.29074001 -1.9035
-0.053516999 -0.29043001 -1.9015
-0.050354999 -0.29071999 -1.9033999
-0.047187001 -0.29100999 -1.9053
-0.044041 -0.29115 -1.9062001
-0.040924001 -0.29113001 -1.9061
-0.037840001 -0.29097 -1.905
-0.034759 -0.29080001 -1.9039
-0.031755999 -0.29032999 -1.9008
-0.028609 -0.29045999 -1.9017
-0.025459999 -0.2906 -1.9026
-0.022265 -0.29087999 -1.9044
-0.019282 -0.29041001 -1.9013
-0.016127 -0.29054001 -1.9022
-0.013111 -0.29021001 -1.9001
-0.0098580997 -0.29064 -1.9029
-0.0067464998 -0.29062 -1.9026999
-0.0035828999 -0.29075 -1.9035
-0.00047016999 -0.29071999 -1.9033999
0.0025865 -0.29054001 -1.9022
0.0057544 -0.29067001 -1.903
0.0089255003 -0.29078999 -1.9038
0.012222 -0.29122001 -1.9066
0.015277 -0.29104 -1.9054
0.018393001 -0.29100999 -1.9052
0.021443 -0.29082 -1.9040999
0.024488 -0.29064 -1.9029
0.02753 -0.29045999 -1.9017
0.030711001 -0.29058 -1.9024
0.033968002 -0.29084 -1.9042
0.036931999 -0.29051 -1.902
0.040119 -0.29062 -1.9026999
0.043152001 -0.29043001 -1.9015
0.046340998 -0.29054999 -1.9023
0.049205001 -0.29006001 -1.899
0.052393999 -0.29017001 -1.8997999
0.055670999 -0.29043001 -1.9015
0.059128001 -0.29099 -1.9052
0.062421001 -0.29124999 -1.9069
0.065540001 -0.29121 -1.9066
0.068195999 -0.29041001 -1.9014
0.071399003 -0.29052001 -1.9021
0.074605003 -0.29063001 -1.9028
0.078009002 -0.29102999 -1.9054
0.081024997 -0.29082999 -1.9040999
0.084239997 -0.29093999 -1.9048001
0.087559998 -0.29119 -1.9065
0.090783 -0.29128999 -1.9071
0.093795002 -0.29109001 -1.9058
0.096804 -0.29089001 -1.9045
0.099918 -0.29084 -1.9042
0.10281 -0.29049 -1.9018
0.10592 -0.29043001 -1.9015
0.10926 -0.29067999 -1.9031
0.11284 -0.29122001 -1.9067
0.11595 -0.29117 -1.9062999
0.12219 -0.29104999 -1.9056
0.12506001 -0.29069999 -1.9032
0.12804 -0.29049 -1.9019001
0.13153 -0.29087999 -1.9044
0.13465001 -0.29082 -1.904
0.1375 -0.29045999 -1.9016
0.14060999 -0.29039001 -1.9012001
0.14399 -0.29063001 -1.9028
0.16264001 -0.29023001 -1.9002
0.55269003 -0.24815001 -1.6247
-0.33148 -0.28863001 -1.9009
-0.32837 -0.28869 -1.9013
-0.32552001 -0.28905001 -1.9037
-0.32253 -0.28926 -1.905
-0.31941 -0.28931999 -1.9054
-0.30647999 -0.28895 -1.903
-0.30348 -0.28915 -1.9043
-0.30037001 -0.28920001 -1.9047
-0.29736 -0.28941 -1.906
-0.29414001 -0.28931001 -1.9054
-0.29102001 -0.28935999 -1.9057
-0.28801 -0.28955999 -1.9069999
-0.28468001 -0.28931001 -1.9054
-0.28156999 -0.28935999 -1.9057
-0.27845001 -0.28941 -1.906
-0.27533001 -0.28946 -1.9062999
-0.27202001 -0.28920001 -1.9047
-0.26890999 -0.28924999 -1.905
-0.26550999 -0.28884 -1.9023
-0.26249 -0.28904 -1.9036
-0.25964999 -0.28953001 -1.9068
-0.25644001 -0.28942001 -1.9061
-0.25314999 -0.28916001 -1.9044
-0.24995001 -0.28906 -1.9037
-0.24684 -0.28909001 -1.904
-0.24389 -0.28942999 -1.9062001
-0.24077 -0.28946999 -1.9064
-0.23758 -0.28935999 -1.9057
-0.23438001 -0.28924999 -1.905
-0.23127 -0.28928 -1.9052
-0.22808 -0.28917 -1.9044
-0.22496 -0.28920001 -1.9047
-0.22178 -0.28907999 -1.9039
-0.21873 -0.28927001 -1.9051
-0.21569 -0.28944999 -1.9062999
-0.21231 -0.28887999 -1.9025
-0.20914 -0.28876001 -1.9017
-0.20615 -0.28909001 -1.9039
-0.20315 -0.28941 -1.9061
-0.20015 -0.28974 -1.9082
-0.19698 -0.28962001 -1.9074
-0.19391 -0.28979 -1.9086
-0.19079 -0.28981999 -1.9087
-0.18772 -0.28999001 -1.9099
-0.18455 -0.28986999 -1.909
-0.18138 -0.28974 -1.9082
-0.17821001 -0.28961 -1.9074
-0.17509 -0.28963 -1.9075
-0.17184 -0.28920001 -1.9047
-0.16873001 -0.28922001 -1.9048001
-0.16558 -0.28909001 -1.9039
-0.16246 -0.28911 -1.904
-0.15939 -0.28927001 -1.9051
-0.15620001 -0.28898999 -1.9033
-0.15306 -0.28885001 -1.9024
