# .PCD v0.7 - Point Cloud Data file format
VERSION 0.7
FIELDS x y z
SIZE 4 4 4
TYPE F F F
COUNT 1 1 1
WIDTH 1708
HEIGHT 1
VIEWPOINT 0 0 0 1 0 0 0
POINTS 1708
DATA ascii
-0.72797 0.23886999 -1.3983999
-0.72530001 0.23890001 -1.3986
-0.72131002 0.23848 -1.3961
-0.71820998 0.23836 -1.3954
-0.71555001 0.23839 -1.3956
-0.71289003 0.23841999 -1.3958
-0.71066999 0.2386 -1.3968
-0.70844001 0.23878001 -1.3979
-0.70449001 0.23835 -1.3954
-0.70226997 0.23853 -1.3964
-0.69960999 0.23856001 -1.3966
-0.69867003 0.23919 -1.4003
-0.69600999 0.23920999 -1.4004
-0.69335002 0.23924001 -1.4006
-0.68858999 0.23849 -1.3961999
-0.68637002 0.23867001 -1.3972
-0.68414003 0.23884 -1.3983001
-0.67941999 0.23810001 -1.3939
-0.67637002 0.23796 -1.3931
-0.67456001 0.23828 -1.395
-0.67150998 0.23815 -1.3942
-0.66929001 0.23830999 -1.3952
-0.66666001 0.23833001 -1.3952
-0.66403002 0.23834001 -1.3953
-0.66180998 0.23851 -1.3963
-0.65957999 0.23867001 -1.3973
-0.65735 0.23884 -1.3982
-0.65473002 0.23885 -1.3983001
-0.65170002 0.2387 -1.3974
-0.64907998 0.23871 -1.3975
-0.64565998 0.23841 -1.3957
-0.64344001 0.23857 -1.3967
-0.64003003 0.23827 -1.3949
-0.63819999 0.23858 -1.3967
-0.63637 0.23889001 -1.3986
-0.63336003 0.23874 -1.3977
-0.63036001 0.23859 -1.3968
-0.62774998 0.23859 -1.3968
-0.62399 0.23812 -1.3940001
-0.62138999 0.23812 -1.3940001
-0.61917001 0.23828 -1.3949
-0.61808002 0.23890001 -1.3986
-0.61548001 0.23889001 -1.3986
-0.61211997 0.23858 -1.3967
-0.60878003 0.23826 -1.3947999
-0.60655999 0.23841 -1.3957
-0.60395998 0.2384 -1.3957
-0.60174 0.23855001 -1.3966
-0.59951001 0.2387 -1.3974
-0.59728998 0.23885 -1.3983001
-0.59469002 0.23884 -1.3982
-0.59210002 0.23882 -1.3982
-0.58916003 0.23865999 -1.3972
-0.58585 0.23833001 -1.3952
-0.58398998 0.23863 -1.397
-0.58140999 0.23861 -1.3969001
-0.57846999 0.23844001 -1.3959
-0.57695001 0.23890001 -1.3986
-0.57437003 0.23887999 -1.3985
-0.57213998 0.23902 -1.3993
-0.56957 0.23899999 -1.3992
-0.56699002 0.23898 -1.3990999
-0.56406999 0.2388 -1.398
-0.56150001 0.23878001 -1.3979
-0.55927002 0.23892 -1.3987
-0.55602998 0.23858 -1.3967
-0.55312997 0.2384 -1.3957
-0.55057001 0.23837 -1.3954999
-0.54834998 0.2385 -1.3963
-0.54645002 0.2388 -1.398
-0.54422998 0.23893 -1.3988
-0.54167002 0.23890001 -1.3986
-0.53943998 0.23903 -1.3994
-0.53656 0.23884 -1.3983001
-0.53465003 0.23913001 -1.3999
-0.53144997 0.23878001 -1.3979
-0.52923 0.23891 -1.3986
-0.52667999 0.23886999 -1.3983999
-0.52412999 0.23884 -1.3982
-0.52095997 0.23849 -1.3961999
-0.51905 0.23876999 -1.3978
-0.51682001 0.23889001 -1.3986
-0.51459002 0.23902 -1.3993
-0.51174003 0.23882 -1.3981
-0.50950998 0.23894 -1.3988
-0.50667 0.23874 -1.3977
-0.50444001 0.23886 -1.3983999
-0.50190997 0.23882 -1.3981
-0.49937999 0.23878001 -1.3979
-0.49746001 0.23906 -1.3995
-0.49493 0.23901001 -1.3993
-0.49270001 0.23913001 -1.3999
-0.48988 0.23892 -1.3987
-0.48765001 0.23904 -1.3994
-0.48541999 0.23915 -1.4001
-0.48232001 0.23878001 -1.3979
-0.48038 0.23906 -1.3995
-0.47758001 0.23885 -1.3983001
-0.47534999 0.23896 -1.3989
-0.47255 0.23875 -1.3977
-0.47005001 0.2387 -1.3974
-0.46810001 0.23897 -1.399
-0.46531001 0.23875 -1.3977
-0.46281001 0.2387 -1.3974
-0.46031001 0.23864 -1.3971
-0.45807999 0.23875 -1.3977
-0.45585999 0.23886 -1.3983001
-0.45335999 0.2388 -1.398
-0.45085999 0.23874 -1.3977
-0.44863999 0.23884 -1.3983001
-0.44641 0.23895 -1.3989
-0.44418001 0.23905 -1.3995
-0.44194999 0.23915 -1.4001
-0.43946001 0.23909 -1.3997
-0.43697 0.23903 -1.3993
-0.43474001 0.23913001 -1.3999
-0.43175 0.23874 -1.3976001
-0.42927 0.23867001 -1.3973
-0.42728999 0.23893 -1.3988
-0.42506 0.23903 -1.3994
-0.42282999 0.23913001 -1.3999
-0.42085001 0.23938 -1.4014
-0.41837001 0.23932 -1.401
-0.41565001 0.23908 -1.3997
-0.4127 0.23869 -1.3973
-0.41 0.23845001 -1.396
-0.40753001 0.23838 -1.3954999
-0.40577999 0.2388 -1.398
-0.40379 0.23905 -1.3995
-0.40178999 0.23931 -1.401
-0.39978999 0.23955999 -1.4025
-0.39708999 0.23932 -1.4011
-0.39486 0.23941 -1.4016
-0.39218 0.23917 -1.4002
-0.38949999 0.23892 -1.3987
-0.38727 0.23901001 -1.3992
-0.38547999 0.23942 -1.4017
-0.38324001 0.23951 -1.4022
-0.38122001 0.23976 -1.4036
-0.37856001 0.23951 -1.4022
-0.37526 0.23876999 -1.3978
-0.37323999 0.23902 -1.3993
-0.37101001 0.23909999 -1.3997999
-0.36857 0.23901001 -1.3993
-0.36614001 0.23893 -1.3988
-0.36390999 0.23901001 -1.3992
-0.36147001 0.23892 -1.3987
-0.35925001 0.23899999 -1.3992
-0.35642001 0.23858 -1.3967
-0.35439 0.23882 -1.3981
-0.35236001 0.23906 -1.3995
-0.35032001 0.2393 -1.4009
-0.34808999 0.23937 -1.4014
-0.34527999 0.23895 -1.3989
-0.34343001 0.23935001 -1.4013
-0.34026 0.2386 -1.3968
-0.33932999 0.23983 -1.404
-0.33599001 0.23891 -1.3986
-0.33431 0.23947001 -1.402
-0.33188999 0.23938 -1.4014
-0.32947999 0.23928 -1.4008
-0.32725 0.23935001 -1.4012001
-0.32466999 0.23908 -1.3997
-0.32278001 0.23948 -1.402
-0.32003 0.23905 -1.3995
-0.31779999 0.23912001 -1.3999
-0.31557 0.23918 -1.4002
-0.31351 0.23941 -1.4016
-0.31127 0.23947001 -1.402
-0.30886999 0.23937 -1.4014
-0.30632001 0.23909999 -1.3997999
-0.30408999 0.23916 -1.4001
-0.30201 0.23939 -1.4015
-0.29962 0.23928 -1.4008
-0.29769999 0.23966999 -1.4031
-0.29484999 0.23907 -1.3996
-0.29322001 0.23978999 -1.4038
-0.29054001 0.23935001 -1.4012001
-0.28845 0.23957001 -1.4025
-0.28591999 0.23929 -1.4009
-0.28369001 0.23935001 -1.4012001
-0.28145999 0.2394 -1.4015
-0.27922001 0.23946001 -1.4019001
-0.27671 0.23918 -1.4002
-0.27421001 0.23890001 -1.3986
-0.27184001 0.23878001 -1.3979
-0.26988 0.23917 -1.4002
-0.26778001 0.23938 -1.4014
-0.26554999 0.23943 -1.4017
-0.26330999 0.23948 -1.402
-0.26108 0.23953 -1.4023
-0.25883999 0.23958001 -1.4026
-0.25635999 0.23929 -1.4009
-0.25413001 0.23934001 -1.4012001
-0.25189999 0.23938 -1.4014
-0.24943 0.23909 -1.3997
-0.24719 0.23914 -1.4
-0.24496 0.23918 -1.4003
-0.24273001 0.23923001 -1.4005001
-0.24072 0.2396 -1.4026999
-0.23849 0.23965 -1.403
-0.23625 0.23969001 -1.4032
-0.23379999 0.23939 -1.4015
-0.23136 0.23909999 -1.3997999
-0.22892 0.2388 -1.398
-0.22679999 0.23901001 -1.3992
-0.22466999 0.23920999 -1.4004
-0.22262999 0.23959 -1.4026
-0.22048999 0.23978999 -1.4038
-0.21825001 0.23983 -1.404
-0.21563999 0.23919 -1.4003
-0.21349999 0.23939 -1.4015
-0.211 0.23892 -1.3987
-0.20895 0.23929 -1.4009
-0.2062 0.23831999 -1.3952
-0.12751 0.23382001 -1.3688999
-0.12599 0.23871 -1.3975
-0.12391 0.23989999 -1.4044
-0.12165 0.23974 -1.4035
-0.1194 0.23958001 -1.4026
-0.11716 0.23958001 -1.4026
-0.11491 0.23942 -1.4016
-0.11269 0.23959 -1.4026999
-0.11044 0.23943 -1.4017
-0.10822 0.2396 -1.4026999
-0.10597 0.23927 -1.4008
-0.10374 0.23927 -1.4008
-0.1015 0.23909999 -1.3997999
-0.099271998 0.23927 -1.4008
-0.097038999 0.23927 -1.4008
-0.094805002 0.23943999 -1.4018
-0.092568003 0.23961 -1.4026999
-0.090332001 0.23961 -1.4026999
-0.088096 0.2396 -1.4026999
-0.085868999 0.23943 -1.4017
-0.083645999 0.23926 -1.4007
-0.081390001 0.23959 -1.4026999
-0.079195999 0.23908 -1.3997
-0.076934002 0.23942 -1.4016
-0.074699998 0.23941 -1.4016
-0.072428003 0.23974 -1.4035
-0.070211999 0.23955999 -1.4025
-0.067976996 0.23954999 -1.4024
-0.065716997 0.23971 -1.4033999
-0.063481003 0.2397 -1.4033
-0.061244 0.23969001 -1.4032
-0.059007 0.23968001 -1.4032
-0.056834001 0.23934001 -1.4011
-0.054568 0.23949 -1.4021
-0.052368 0.23931 -1.401
-0.050099 0.23947001 -1.4019001
-0.047940999 0.23910999 -1.3999
-0.045630999 0.23943999 -1.4017
-0.043396998 0.23942 -1.4016
-0.041119002 0.23957001 -1.4025
-0.038883999 0.23955999 -1.4024
-0.036695998 0.23937 -1.4014
-0.034364998 0.23969001 -1.4032
-0.032179002 0.2395 -1.4021
-0.02984 0.23982 -1.404
-0.027602 0.23980001 -1.4039
-0.025309 0.23995 -1.4047
-0.023185 0.23959 -1.4026
-0.020889999 0.23973 -1.4035
-0.018714 0.23954 -1.4024
-0.016479 0.23952 -1.4022
-0.014309 0.23932999 -1.4011
-0.011944 0.23964 -1.4029
-0.0096397996 0.23977999 -1.4038
-0.0074721002 0.23959 -1.4026
-0.0052367002 0.23955999 -1.4025
-0.0029283999 0.2397 -1.4033
-0.00069180003 0.23966999 -1.4031
0.0015445 0.23965 -1.403
0.0037805 0.23962 -1.4028
0.005936 0.23942 -1.4016
0.0082515003 0.23955999 -1.4024
0.010319 0.23919 -1.4003
0.012807 0.23965999 -1.4031
0.015043 0.23963 -1.4029
0.017278999 0.2396 -1.4026999
0.019423001 0.23939 -1.4015
0.021748999 0.23953 -1.4023
0.024266001 0.23999 -1.405
0.02641 0.23978999 -1.4038
0.028550001 0.23959 -1.4026
0.030686 0.23938 -1.4014
0.033020001 0.23951 -1.4022
0.035255 0.23947001 -1.402
0.037593 0.2396 -1.4026999
0.039829001 0.23955999 -1.4025
0.04228 0.23986 -1.4042
0.044298001 0.23948 -1.402
0.046420999 0.23927 -1.4008
0.048765998 0.2394 -1.4015
0.051114999 0.23952 -1.4022
0.053582001 0.23981 -1.4039
0.055465002 0.23926 -1.4007
0.058056999 0.23972 -1.4033999
0.060416002 0.23984 -1.4040999
0.062776998 0.23996 -1.4048001
0.064765997 0.23958001 -1.4026
0.067001 0.23953 -1.4023
0.068977997 0.23915 -1.4001
0.071208999 0.23909999 -1.3997999
0.073703997 0.23939 -1.4014
0.076071002 0.2395 -1.4021
0.078576997 0.23977999 -1.4038
0.080950998 0.23989999 -1.4044
0.083190002 0.23985 -1.4040999
0.085427999 0.23978999 -1.4038
0.087949999 0.24007 -1.4055001
0.090190999 0.24002001 -1.4051
0.092430003 0.23996 -1.4048001
0.094521999 0.23974 -1.4035
0.097057 0.24002001 -1.4051
0.099448003 0.24013001 -1.4058
0.10154 0.23989999 -1.4045
0.10377 0.23984 -1.4040999
0.10586 0.23962 -1.4028
0.10825 0.23972 -1.4033999
0.11065 0.23983 -1.404
0.11288 0.23977 -1.4037
0.11496 0.23954 -1.4023
0.11736 0.23964 -1.4029
0.11943 0.23941 -1.4016
0.12217 0.23985 -1.4040999
0.12423 0.23962 -1.4028
0.12664001 0.23972 -1.4033999
0.12905 0.23982 -1.404
0.13129 0.23975 -1.4036
0.13352001 0.23968001 -1.4032
0.13575999 0.23961 -1.4028
0.13835999 0.23988 -1.4043
0.1406 0.23981 -1.4039
0.14283 0.23974 -1.4035
0.14507 0.23966999 -1.4031
0.14768 0.23993 -1.4046
0.1503 0.24018 -1.4061
0.15234999 0.23995 -1.4047
0.15478 0.24004 -1.4053
0.15682 0.23980001 -1.4039
0.15926 0.23988999 -1.4044
0.16169 0.23998 -1.4049
0.16413 0.24007 -1.4054
0.16637 0.23999 -1.405
0.16902 0.24023999 -1.4064
0.17084999 0.23983 -1.4040999
0.17309 0.23975 -1.4036
0.17512 0.23951 -1.4022
0.17735 0.23943 -1.4017
0.18001001 0.23968001 -1.4031
0.18246 0.23976 -1.4036
0.18469 0.23968001 -1.4031
0.18693 0.23959 -1.4026999
0.18916 0.23951 -1.4022
0.19183999 0.23975 -1.4036
0.19452 0.23999999 -1.405
0.19631 0.23958001 -1.4026
0.19832 0.23932999 -1.4011
0.20055 0.23925 -1.4006
0.20324001 0.23949 -1.402
0.20616999 0.23988999 -1.4044
0.20817 0.23964 -1.4029
0.21111 0.24004 -1.4053
0.21335 0.23995 -1.4047
0.21582 0.24002001 -1.4051
0.21854 0.24025001 -1.4065
0.22054 0.23999999 -1.405
0.22278 0.23989999 -1.4045
0.22477999 0.23965 -1.403
0.22701 0.23954999 -1.4024
0.22851001 0.23897 -1.399
0.23148 0.23936 -1.4013
0.23396 0.23942 -1.4017
0.23695 0.23982 -1.404
0.23943999 0.23988 -1.4043
0.24143 0.23962 -1.4028
0.24417999 0.23984 -1.4040999
0.24641 0.23974 -1.4035
0.24890999 0.23980001 -1.4039
0.25115001 0.2397 -1.4033
0.25365001 0.23976 -1.4036
0.25641999 0.23998 -1.4049
0.25865 0.23988 -1.4043
0.26062 0.23961 -1.4028
0.26420999 0.24032 -1.4069
0.26644999 0.24021 -1.4062999
0.2687 0.2401 -1.4056
0.27039 0.23966999 -1.4031
0.27318001 0.23988999 -1.4044
0.27597001 0.2401 -1.4056
0.27849001 0.24015 -1.4059
0.28044999 0.23988 -1.4043
0.28211999 0.23944999 -1.4018
0.28492999 0.23965999 -1.403
0.28802001 0.24003001 -1.4052
0.29084 0.24023999 -1.4064
0.29308 0.24011999 -1.4058
0.29532 0.24000999 -1.4051
0.29697001 0.23957001 -1.4025
0.3001 0.23994 -1.4047
0.30263001 0.23998 -1.4049
0.30546999 0.24019 -1.4061
0.30801001 0.24022999 -1.4064
0.31025001 0.24011 -1.4057
0.31279999 0.24015 -1.4059
0.31443 0.23971 -1.4033
0.31665999 0.23959 -1.4026
0.31920999 0.23962 -1.4028
0.32174999 0.23965999 -1.4031
0.32429999 0.2397 -1.4033
0.32622001 0.23941 -1.4016
0.32909 0.23961 -1.4026999
0.33353999 0.2406 -1.4086
0.33482999 0.23999999 -1.405
0.33643001 0.23954999 -1.4024
0.33834001 0.23926 -1.4007
0.34219 0.23993 -1.4046
0.34476 0.23996 -1.4048001
0.34667 0.23966999 -1.4031
0.34955999 0.23986 -1.4042
0.35246 0.24004 -1.4053
0.35503 0.24007 -1.4055001
0.35626999 0.23946001 -1.4019001
0.3585 0.23932999 -1.4011
0.36175001 0.23966999 -1.4031
0.36465999 0.23985 -1.4042
0.36758 0.24003001 -1.4052
0.3705 0.24021 -1.4062999
0.37309 0.24022999 -1.4064
0.37498 0.23994 -1.4047
0.37722 0.23980001 -1.4038
0.38016 0.23997 -1.4049
0.38238999 0.23983 -1.4040999
0.38462999 0.23969001 -1.4032
0.38722 0.23971 -1.4033
0.38981 0.23972 -1.4033999
0.39205 0.23958001 -1.4026
0.39427999 0.23943 -1.4017
0.39651999 0.23929 -1.4009
0.40019 0.23977 -1.4037
0.40316001 0.23994 -1.4047
0.40540001 0.23978999 -1.4038
0.40689999 0.23932999 -1.4011
0.40987 0.2395 -1.4021
0.41358 0.23997 -1.4049
0.41619 0.23998 -1.4049
0.4188 0.23998 -1.4049
0.42179 0.24014001 -1.4059
0.42328 0.23968001 -1.4032
0.42627001 0.23984 -1.4040999
0.42774999 0.23937 -1.4014
0.43112001 0.23968001 -1.4032
0.43373999 0.23968001 -1.4032
0.43752 0.24015 -1.4059
0.43821001 0.23937 -1.4013
0.81616998 0.28393 -1.6622
0.81734002 0.28321999 -1.6581
0.82002002 0.28295001 -1.6565
0.82218999 0.28253999 -1.6540999
0.82692999 0.28285 -1.6559
0.83064997 0.28286001 -1.656
0.83332998 0.28259 -1.6544
-0.75749999 0.24065 -1.4011
-0.75663 0.2413 -1.4049
-0.75301999 0.24104001 -1.4033999
-0.74988002 0.24093001 -1.4028
-0.74719 0.24098 -1.403
-0.74269998 0.24041 -1.3997
-0.73912001 0.24015 -1.3982
-0.73689002 0.24033999 -1.3993
-0.73421001 0.24038 -1.3995
-0.73198003 0.24056 -1.4006
-0.72842002 0.2403 -1.3990999
-0.72530001 0.24018 -1.3983999
-0.72219002 0.24006 -1.3977
-0.71952999 0.24009 -1.3979
-0.71686 0.24011999 -1.3981
-0.71420002 0.24015 -1.3982
-0.71153003 0.24018 -1.3983999
-0.70973998 0.24052 -1.4003
-0.70664001 0.24039 -1.3996
-0.70270002 0.23996 -1.3971
-0.70003998 0.23999 -1.3973
-0.69867003 0.24047001 -1.4001
-0.69600999 0.24049 -1.4002
-0.69335002 0.24052 -1.4003
-0.68985999 0.24022999 -1.3987
-0.68678999 0.2401 -1.3979
-0.68456 0.24027 -1.3989
-0.68233001 0.24044999 -1.3999
-0.67927003 0.24031 -1.3992
-0.67539001 0.23987 -1.3966
-0.67316002 0.24004 -1.3976001
-0.67133999 0.24036001 -1.3994
-0.66911 0.24053 -1.4004
-0.66566002 0.24023999 -1.3987
-0.66262001 0.24009 -1.3979
-0.66039002 0.24026 -1.3989
-0.65895998 0.24074 -1.4016
-0.65592998 0.24059001 -1.4008
-0.65289998 0.24044999 -1.3999
-0.65065998 0.24061 -1.4009
-0.64763999 0.24045999 -1.4
-0.64462 0.24031 -1.3992
-0.64200002 0.24032 -1.3992
-0.63976997 0.24048001 -1.4001
-0.63753003 0.24064 -1.4011
-0.63414001 0.24033 -1.3993
-0.63151997 0.24033 -1.3993
-0.62889999 0.24033999 -1.3993
-0.62667 0.24049 -1.4002
-0.62444001 0.24065 -1.4011
-0.62182999 0.24065 -1.4011
-0.61922002 0.24065 -1.4011
-0.61660999 0.24064 -1.4011
-0.61400002 0.24064 -1.4011
-0.61138999 0.24063 -1.401
-0.61027002 0.24126001 -1.4047
-0.60729003 0.24109 -1.4037
-0.60431999 0.24093001 -1.4026999
-0.60061002 0.24044999 -1.3999
-0.59802002 0.24044 -1.3999
-0.59578001 0.24059001 -1.4008
-0.59246999 0.24026 -1.3989
-0.59024 0.24041 -1.3997
-0.58872002 0.24087 -1.4024
-0.58648002 0.24101 -1.4032
-0.58389002 0.241 -1.4032
-0.58059001 0.24067 -1.4012001
-0.57801002 0.24065 -1.4011
-0.57472003 0.24032 -1.3992
-0.57213998 0.2403 -1.3990999
-0.56990999 0.24044 -1.3999
-0.56836998 0.24089999 -1.4026
-0.56579 0.24088 -1.4024
-0.56287003 0.24070001 -1.4014
-0.56029999 0.24067999 -1.4013
-0.55805999 0.24081001 -1.4021
-0.55583 0.24095 -1.4029
-0.55325001 0.24092001 -1.4026999
-0.55135 0.24122 -1.4044
-0.54811001 0.24087 -1.4024
-0.54522002 0.24068999 -1.4013
-0.54167002 0.24018 -1.3983999
-0.53911 0.24015 -1.3982
-0.53688002 0.24028 -1.399
-0.53530002 0.24073 -1.4016
-0.53307003 0.24086 -1.4023
-0.52986997 0.24051 -1.4003
-0.52700001 0.24031 -1.3992
-0.52477002 0.24044 -1.3999
-0.52253002 0.24056999 -1.4006
-0.52029997 0.24068999 -1.4014
-0.51775002 0.24066 -1.4012001
-0.51520997 0.24062 -1.4009
-0.51266998 0.24058001 -1.4007
-0.51012999 0.24054 -1.4005001
-0.50759 0.2405 -1.4003
-0.50566 0.24078999 -1.4019001
-0.50342 0.24090999 -1.4026
-0.49998999 0.24038 -1.3995
-0.49746001 0.24033999 -1.3993
-0.49493 0.24029 -1.399
-0.49329001 0.24073 -1.4016
-0.49076 0.24068999 -1.4013
-0.48794001 0.24048001 -1.4001
-0.48571 0.2406 -1.4008
-0.48348001 0.24071001 -1.4015
-0.48124 0.24082001 -1.4021
-0.47900999 0.24094 -1.4028
-0.47620001 0.24073 -1.4016
-0.47367999 0.24067999 -1.4013
-0.47145 0.24078999 -1.4019001
-0.46921 0.24089999 -1.4026
-0.46641999 0.24067999 -1.4013
-0.46445999 0.24095 -1.4029
-0.46168 0.24073 -1.4016
-0.4589 0.24052 -1.4003
-0.45640001 0.24045999 -1.4
-0.45416999 0.24056999 -1.4006
-0.45192999 0.24067 -1.4012001
-0.44916999 0.24044999 -1.4
-0.44694 0.24055 -1.4006
-0.4447 0.24066 -1.4012001
-0.44299001 0.24109 -1.4037
-0.44049001 0.24101999 -1.4033
-0.43799999 0.24096 -1.4029
-0.43551001 0.24089999 -1.4026
-0.43327001 0.241 -1.4031
-0.43053001 0.24077 -1.4018
-0.42829001 0.24087 -1.4024
-0.42581001 0.24079999 -1.402
-0.42357001 0.24089999 -1.4026
-0.42109001 0.24083 -1.4022
-0.41909999 0.24109 -1.4037
-0.41661999 0.24101999 -1.4033
-0.41365999 0.24062 -1.401
-0.41119 0.24055 -1.4005001
-0.40871999 0.24048001 -1.4001
-0.40672001 0.24073 -1.4016
-0.40448999 0.24083 -1.4021
-0.40248001 0.24108 -1.4036
-0.40002 0.24101 -1.4032
-0.39754999 0.24093001 -1.4028
-0.39531001 0.24101999 -1.4033
-0.39285001 0.24094 -1.4028
-0.39061001 0.24102999 -1.4033
-0.38793001 0.24078 -1.4019001
-0.38569999 0.24087 -1.4024
-0.38324001 0.24078999 -1.4019001
-0.38122001 0.24104001 -1.4033999
-0.37876999 0.24096 -1.4029
-0.37674999 0.24121 -1.4044
-0.37450999 0.24129 -1.4048001
-0.37185001 0.24104001 -1.4033999
-0.36919999 0.24078999 -1.4019001
-0.36614001 0.24021 -1.3985
-0.36452001 0.24078 -1.4019001
-0.36228999 0.24086 -1.4024
-0.36065 0.24144 -1.4057
-0.35741001 0.24068999 -1.4013
-0.35538 0.24093001 -1.4026999
-0.35275 0.24067 -1.4012001
-0.35089999 0.24108 -1.4036
-0.34847 0.24099 -1.4031
-0.34643 0.24123 -1.4045
-0.34380999 0.24097 -1.403
-0.34156999 0.24104001 -1.4033999
-0.33932999 0.24111 -1.4038
-0.33728001 0.24135 -1.4052
-0.33504 0.24142 -1.4056
-0.33261999 0.24133 -1.405
-0.33002001 0.24106 -1.4035
-0.32743001 0.24079999 -1.402
-0.32484001 0.24053 -1.4004
-0.32295999 0.24093001 -1.4028
-0.32089001 0.24116001 -1.4040999
-0.31848001 0.24106 -1.4035
-0.31624001 0.24112999 -1.4039
-0.31384 0.24102999 -1.4033
-0.3116 0.24109 -1.4037
-0.30904001 0.24082001 -1.4021
-0.30647999 0.24055 -1.4005001
-0.30425 0.24061 -1.4009
-0.30232999 0.241 -1.4032
-0.29993999 0.24089999 -1.4026
-0.29785001 0.24112 -1.4039
-0.29576999 0.24135 -1.4052
-0.29383001 0.24174 -1.4075
-0.29113999 0.2413 -1.4049
-0.28889999 0.24135999 -1.4052
-0.28591999 0.24058001 -1.4007
-0.28413001 0.24112999 -1.4039
-0.28189 0.24119 -1.4043
-0.28007001 0.24175 -1.4075
-0.27768999 0.24163 -1.4068
-0.27557999 0.24185 -1.4081
-0.27305999 0.24157 -1.4065
-0.27055001 0.24129 -1.4048001
-0.26804999 0.241 -1.4032
-0.26554999 0.24072 -1.4015
-0.26344001 0.24093001 -1.4028
-0.26095 0.24065 -1.4011
-0.25946999 0.24169999 -1.4072
-0.25698 0.24141 -1.4056
-0.25523001 0.24213 -1.4097
-0.25238001 0.24134 -1.4051
-0.25014001 0.24138001 -1.4054
-0.24778 0.24126001 -1.4047
-0.24553999 0.2413 -1.4049
-0.24307001 0.24101 -1.4032
-0.24095 0.24122 -1.4045
-0.23871 0.24127001 -1.4047
-0.23657 0.24147999 -1.4059
-0.23423 0.24135 -1.4052
-0.23198999 0.24139 -1.4054
-0.22954001 0.24109 -1.4037
-0.2272 0.24096 -1.4029
-0.22506 0.24117 -1.4040999
-0.22292 0.24137001 -1.4053
-0.22078 0.24157999 -1.4065
-0.21863 0.24178 -1.4076999
-0.21619999 0.24147999 -1.406
-0.21387 0.24135 -1.4052
-0.21162 0.24138001 -1.4054
-0.20938 0.24142 -1.4056
-0.20525999 0.23774 -1.3842
-0.12608001 0.24067 -1.4012001
-0.12399 0.24186 -1.4082
-0.12171 0.24153 -1.4062001
-0.11945 0.24137001 -1.4053
-0.11724 0.24171001 -1.4073
-0.115 0.24172001 -1.4073
-0.11273 0.24138001 -1.4054
-0.11047 0.24122 -1.4044
-0.10824 0.24139 -1.4054
-0.10601 0.24156 -1.4064
-0.10375 0.24106 -1.4035
-0.10152 0.24123 -1.4045
-0.099275 0.24089 -1.4025
-0.097039998 0.24174 -1.4075
-0.094800003 0.24123 -1.4045
-0.092554003 0.24157 -1.4065
-0.090327002 0.24106 -1.4035
-0.088082999 0.24123 -1.4045
-0.085842997 0.24122 -1.4045
-0.083594002 0.24139 -1.4054
-0.081340998 0.24155 -1.4064
-0.079126 0.24121 -1.4044
-0.076839998 0.24171001 -1.4073
-0.074612997 0.24154 -1.4062999
-0.072352 0.24169999 -1.4072
-0.070129 0.24152 -1.4062001
-0.067886002 0.24151 -1.4062001
-0.065644003 0.24151 -1.4061
-0.063376002 0.24166 -1.4069999
-0.061188001 0.24132 -1.405
-0.058947999 0.24131 -1.4049
-0.056740001 0.24112 -1.4039
-0.054467998 0.24128 -1.4048001
-0.052262999 0.2411 -1.4037
-0.049989 0.24126001 -1.4046
-0.047711 0.24141 -1.4055001
-0.045430001 0.24156 -1.4064
-0.043228999 0.24138001 -1.4054
-0.041032001 0.24119 -1.4043
-0.038702998 0.24152 -1.4062001
-0.036366999 0.24184 -1.408
-0.034170002 0.24165 -1.4069
-0.031925999 0.24163 -1.4068
-0.029682999 0.24161001 -1.4067
-0.02744 0.24158999 -1.4066
-0.025086001 0.24191 -1.4084001
-0.022896999 0.24172001 -1.4073
-0.020772001 0.24135999 -1.4052
-0.018653 0.241 -1.4031
-0.016416 0.24097 -1.403
-0.014051 0.24129 -1.4048001
-0.011679 0.24160001 -1.4066
-0.0095718997 0.24123999 -1.4045
-0.0072630001 0.24138001 -1.4054
-0.0050222999 0.24135 -1.4052
-0.0026356 0.24166 -1.4069999
-0.00039199999 0.24163 -1.4068
0.0017746 0.24144 -1.4057
0.0040158001 0.24141 -1.4055001
0.0061765001 0.24121 -1.4044
0.0085792001 0.24151 -1.4061
0.010654 0.24115001 -1.404
0.013148 0.24162 -1.4068
0.015391 0.24158999 -1.4066
0.017634001 0.24155 -1.4064
0.019695001 0.24118 -1.4042
0.022119001 0.24147999 -1.406
0.024642 0.24195001 -1.4087
0.026889 0.24191999 -1.4085
0.029135 0.24188 -1.4083
0.031381 0.24184 -1.4081
0.033626001 0.2418 -1.4078
0.035767999 0.24160001 -1.4066
0.037802 0.24122 -1.4044
0.040041 0.24118 -1.4042
0.042388 0.24131 -1.405
0.044627 0.24127001 -1.4047
0.047201 0.24173 -1.4074
0.049219001 0.24135 -1.4052
0.051573999 0.24146999 -1.4059
0.053699002 0.24126001 -1.4047
0.056056999 0.24139 -1.4054
0.058417998 0.24151 -1.4061
0.061025001 0.24197 -1.4088
0.063271999 0.24191999 -1.4085
0.065517999 0.24187 -1.4082
0.067509003 0.24149001 -1.406
0.070008002 0.24177 -1.4076999
0.071860999 0.24122 -1.4044
0.074629001 0.24184 -1.4081
0.076874003 0.24179 -1.4078
0.078984 0.24157 -1.4065
0.081225999 0.24152 -1.4062001
0.083467998 0.24146999 -1.4059
0.08585 0.24157999 -1.4065
0.088092998 0.24153 -1.4062001
0.090479001 0.24164 -1.4069
0.093014002 0.24191999 -1.4085
0.095408 0.24202999 -1.4091001
0.097355999 0.24164 -1.4069
0.099751003 0.24175 -1.4075
0.10169 0.24135 -1.4052
0.10424 0.24163 -1.4068
0.10664 0.24174 -1.4074
0.10904 0.24184 -1.4081
0.11129 0.24178 -1.4076999
0.11353 0.24172001 -1.4073
0.11577 0.24166 -1.4069999
0.11802 0.24158999 -1.4066
0.12026 0.24153 -1.4062001
0.1225 0.24146 -1.4059
0.12474 0.2414 -1.4055001
0.12733001 0.24167 -1.4069999
0.1294 0.24143 -1.4057
0.13164 0.24137001 -1.4053
0.13388 0.2413 -1.4049
0.1363 0.2414 -1.4055001
0.13854 0.24133 -1.4051
0.14114 0.24158999 -1.4066
0.1432 0.24135 -1.4052
0.14563 0.24145 -1.4058
0.14861999 0.24203999 -1.4092
0.15086 0.24197 -1.4088
0.15311 0.2419 -1.4084001
0.15536 0.24181999 -1.4079
0.1576 0.24175 -1.4075
0.15985 0.24167 -1.4071
0.16229001 0.24176 -1.4076
0.16413 0.24135 -1.4052
0.16677 0.24161001 -1.4067
0.16942 0.24186 -1.4082
0.17186999 0.24195001 -1.4087
0.17411999 0.24187 -1.4082
0.17615999 0.24162 -1.4068
0.17882 0.24187 -1.4082
0.18149 0.24212 -1.4097
0.18373001 0.24203999 -1.4092
0.18555 0.24162 -1.4068
0.18780001 0.24154 -1.4062999
0.19004001 0.24145 -1.4058
0.1925 0.24153 -1.4062999
0.19496 0.24161001 -1.4067
0.19698 0.24135999 -1.4053
0.19945 0.24144 -1.4057
0.20123 0.24101999 -1.4033
0.20438001 0.24158999 -1.4066
0.20686001 0.24167 -1.4069999
0.20909999 0.24157999 -1.4065
0.21228001 0.24214999 -1.4098001
0.21358 0.2414 -1.4055001
0.21653 0.2418 -1.4078
0.21878 0.24169999 -1.4073
0.22174001 0.2421 -1.4096
0.22423001 0.24217001 -1.41
0.22599 0.24175 -1.4075
0.22824 0.24165 -1.4069999
0.23073 0.24172001 -1.4074
0.23397 0.24228001 -1.4105999
0.23597001 0.24202 -1.4091001
0.23872 0.24225 -1.4104
0.24122 0.24231 -1.4108
0.2427 0.24172001 -1.4073
0.24495 0.24162 -1.4068
0.24744999 0.24168 -1.4071
0.24969 0.24157999 -1.4065
0.25220001 0.24164 -1.4069
0.25418001 0.24137001 -1.4053
0.25748 0.24191999 -1.4085
0.25999001 0.24198 -1.4089
0.26304001 0.24236 -1.4111
0.26502001 0.24209 -1.4095
0.26699999 0.24181999 -1.408
0.26897001 0.24155 -1.4064
0.27121001 0.24144 -1.4057
0.27373001 0.24150001 -1.4061
0.27597001 0.24139 -1.4054
0.27849001 0.24144 -1.4057
0.28073001 0.24133 -1.4051
0.28325999 0.24138001 -1.4054
0.28692999 0.24208 -1.4094
0.28946 0.24213 -1.4097
0.29229 0.24234 -1.4109
0.29394999 0.2419 -1.4084001
0.29679 0.2421 -1.4096
0.29874 0.24183001 -1.408
0.30127999 0.24187 -1.4082
0.30412 0.24208 -1.4094
0.30607 0.24179 -1.4078
0.30860999 0.24184 -1.408
0.31116 0.24188 -1.4083
0.31400999 0.24208 -1.4094
0.31626001 0.24196 -1.4087
0.31788999 0.24151 -1.4061
0.32043999 0.24155 -1.4064
0.32361999 0.24191 -1.4085
0.32617 0.24195001 -1.4087
0.32811001 0.24166 -1.4069999
0.33035001 0.24153 -1.4062999
0.33322999 0.24173 -1.4074
0.33643001 0.24208 -1.4095
0.33899 0.24212 -1.4096
0.34156001 0.24214999 -1.4098001
0.34380999 0.24202 -1.4091001
0.34735999 0.24253 -1.4119999
0.34994 0.24255 -1.4122
0.35152999 0.2421 -1.4096
0.35345 0.24180999 -1.4079
0.35536 0.24152 -1.4062001
0.35793999 0.24154 -1.4062999
0.36052001 0.24157 -1.4065
0.36276001 0.24143 -1.4057
0.36533999 0.24145 -1.4058
0.36860001 0.24179 -1.4078
0.37119001 0.24181999 -1.4079
0.37343001 0.24168 -1.4071
0.37566999 0.24154 -1.4062999
0.37896001 0.24187 -1.4082
0.38119999 0.24173 -1.4074
0.3838 0.24175 -1.4075
0.38639 0.24177 -1.4076
0.38934001 0.24194001 -1.4086
0.39087999 0.24147999 -1.4059
0.39383 0.24165 -1.4069
0.39572001 0.24135 -1.4052
0.39868 0.24152 -1.4062001
0.40164 0.24168999 -1.4072
0.40533999 0.24217001 -1.41
0.40831 0.24234 -1.4109
0.41056001 0.24219 -1.4101
0.41317999 0.24219 -1.4101
0.41543001 0.24203999 -1.4092
0.41768 0.24189 -1.4083
0.42104 0.24221 -1.4102
0.42254001 0.24174 -1.4075
0.42554 0.2419 -1.4084001
0.42816001 0.2419 -1.4084001
0.43040001 0.24175 -1.4075
0.43265 0.24158999 -1.4066
0.43604001 0.24191 -1.4084001
0.43790001 0.24158999 -1.4066
0.81059998 0.28698 -1.6709
0.81718999 0.28573999 -1.6636
0.81887001 0.28518 -1.6604
0.82053 0.28461 -1.6571
0.82270998 0.28420001 -1.6547
0.82280999 0.2832 -1.6489
0.82805997 0.28365001 -1.6515
-0.75887001 0.24245 -1.4035
-0.75617999 0.24248999 -1.4038
-0.75256997 0.24223 -1.4023
-0.74941999 0.24212 -1.4017
-0.74764001 0.24247 -1.4037
-0.74449998 0.24236 -1.403
-0.74225998 0.24255 -1.4040999
-0.73868001 0.24229001 -1.4026
-0.73689002 0.24263 -1.4046
-0.73376 0.24251001 -1.4039
-0.72974998 0.24209 -1.4015
-0.72706997 0.24213 -1.4017
-0.72482997 0.24231 -1.4028
-0.72302997 0.24265 -1.4047
-0.71991998 0.24253 -1.404
-0.71636999 0.24225999 -1.4024
-0.71327001 0.24213 -1.4017
-0.71103001 0.24232 -1.4028
-0.70749998 0.24203999 -1.4012001
-0.70311999 0.24145 -1.3978
-0.70090002 0.24163 -1.3988
-0.69909 0.24196 -1.4007
-0.69600999 0.24183001 -1.4
-0.69419998 0.24216001 -1.4019001
-0.69154 0.24219 -1.402
-0.68931001 0.24236 -1.4031
-0.68623 0.24223 -1.4023
-0.68357998 0.24225 -1.4024
-0.68176001 0.24258 -1.4043
-0.67909998 0.24259999 -1.4044
-0.67603999 0.24246 -1.4036
-0.67338997 0.24247999 -1.4037
-0.67115003 0.24265 -1.4047
-0.66768998 0.24235 -1.403
-0.66505003 0.24236 -1.4031
-0.66320997 0.24269 -1.4049
-0.66136998 0.24301 -1.4068
-0.65833002 0.24287 -1.406
-0.65489 0.24257 -1.4042
-0.65186 0.24242 -1.4033999
-0.64962 0.24258 -1.4043
-0.64618999 0.24228001 -1.4026
-0.64357001 0.24228001 -1.4026
-0.64016002 0.24198 -1.4008
-0.63831002 0.24229001 -1.4026
-0.63568997 0.2423 -1.4026999
-0.63384002 0.24260999 -1.4045
-0.63121003 0.24262001 -1.4045
-0.62897003 0.24277 -1.4054
-0.62597001 0.24262001 -1.4045
-0.62335002 0.24262001 -1.4045
-0.62147999 0.24293 -1.4062999
-0.61848998 0.24277 -1.4054
-0.61624002 0.24292 -1.4062999
-0.61436999 0.24324 -1.4081
-0.61063999 0.24276 -1.4053
-0.60839999 0.24291 -1.4062001
-0.60579002 0.2429 -1.4062001
-0.60317999 0.2429 -1.4061
-0.59983999 0.24257 -1.4043
-0.59650999 0.24224 -1.4024
-0.59426999 0.24239001 -1.4032
-0.59240001 0.2427 -1.405
-0.59051001 0.243 -1.4068
-0.58791 0.24299 -1.4067
-0.58495998 0.24281999 -1.4057
-0.58236003 0.2428 -1.4056
-0.57906002 0.24247 -1.4037
-0.57612002 0.24229001 -1.4026
-0.57318997 0.24212 -1.4016
-0.57094997 0.24225999 -1.4024
-0.56871998 0.24240001 -1.4033
-0.56682003 0.2427 -1.405
-0.56458002 0.24284001 -1.4058
-0.56234002 0.24298 -1.4066
-0.55975997 0.24295001 -1.4065
-0.55650002 0.24260999 -1.4045
-0.55391997 0.24259 -1.4043
-0.55135 0.24256 -1.4042
-0.54878002 0.24253 -1.404
-0.54686999 0.24282999 -1.4058
-0.54430002 0.2428 -1.4056
-0.54140002 0.24260999 -1.4045
-0.53817999 0.24225999 -1.4025
-0.53561997 0.24223 -1.4023
-0.53371 0.24252 -1.404
-0.53147 0.24265 -1.4047
-0.52890998 0.24262001 -1.4045
-0.52604002 0.24242 -1.4033999
-0.52411002 0.24270999 -1.4051
-0.52092999 0.24235 -1.403
-0.51868999 0.24247999 -1.4037
-0.51707 0.24293 -1.4062999
-0.51451999 0.24289 -1.4061
-0.51196998 0.24285001 -1.4059
-0.50819999 0.24217001 -1.4019001
-0.50595999 0.24229001 -1.4026
-0.50373 0.24241 -1.4033
-0.50149 0.24253 -1.404
-0.49924999 0.24265 -1.4047
-0.49671 0.24260999 -1.4045
-0.49476999 0.24289 -1.4061
-0.49193999 0.24268 -1.4049
-0.48969001 0.2428 -1.4056
-0.48745 0.24291 -1.4062001
-0.48521 0.24303 -1.4069
-0.48238999 0.24281999 -1.4057
-0.47957999 0.24260999 -1.4045
-0.47705001 0.24256 -1.4042
-0.47481 0.24267 -1.4048001
-0.47284999 0.24293999 -1.4064
-0.47033 0.24289 -1.4061
-0.46753001 0.24267 -1.4049
-0.46529001 0.24278 -1.4055001
-0.46278 0.24273001 -1.4052
-0.46026 0.24267 -1.4049
-0.45802 0.24278 -1.4055001
-0.45524001 0.24256 -1.4042
-0.45247 0.24234 -1.4029
-0.4497 0.24212 -1.4016
-0.44746 0.24222 -1.4022
-0.44575 0.24265 -1.4047
-0.44325 0.24259 -1.4044
-0.44126999 0.24286 -1.4059
-0.43928 0.24312 -1.4075
-0.43704 0.24323 -1.408
-0.43378001 0.24267 -1.4048001
-0.43154001 0.24277 -1.4054
-0.42954001 0.24303 -1.4069
-0.42631 0.24247 -1.4037
-0.42407 0.24257 -1.4042
-0.42133999 0.24234 -1.4029
-0.41982999 0.24293 -1.4062999
-0.41758999 0.24302 -1.4069
-0.41510001 0.24295001 -1.4065
-0.41286001 0.24304999 -1.4069999
-0.41014001 0.24281 -1.4056
-0.40812999 0.24307001 -1.4071
-0.40588999 0.24315999 -1.4076999
-0.40364 0.24325 -1.4082
-0.40094 0.24301 -1.4068
-0.39846 0.24293 -1.4064
-0.39554 0.24253 -1.404
-0.3933 0.24260999 -1.4045
-0.39105999 0.2427 -1.405
-0.38925999 0.24312 -1.4074
-0.38701999 0.24321 -1.4079
-0.38455001 0.24313 -1.4075
-0.38209 0.24304999 -1.4069999
-0.37920001 0.24263 -1.4046
-0.37717 0.24288 -1.4061
-0.37492999 0.24296001 -1.4065
-0.37248001 0.24288 -1.406
-0.37024 0.24296001 -1.4065
-0.36779001 0.24288 -1.406
-0.36513001 0.24262001 -1.4046
-0.3633 0.24304 -1.4069
-0.36126 0.24327999 -1.4084001
-0.35901001 0.24336 -1.4088
-0.35676 0.24344 -1.4093
-0.35393 0.24301 -1.4068
-0.35168001 0.24309 -1.4073
-0.34904999 0.24282999 -1.4058
-0.34718999 0.24324 -1.4081
-0.34457001 0.24298 -1.4066
-0.34195 0.24271999 -1.4051
-0.33971 0.24279 -1.4055001
-0.33765 0.24303 -1.4069
-0.33539999 0.2431 -1.4073
-0.33298001 0.243 -1.4068
-0.33037999 0.24274001 -1.4052
-0.32831001 0.24297 -1.4066
-0.32642001 0.24338 -1.4089
-0.324 0.24327999 -1.4083
-0.32174999 0.24335 -1.4087
-0.3195 0.24341001 -1.4091001
-0.31726 0.24348 -1.4095
-0.31467 0.24321 -1.4079
-0.31226 0.2431 -1.4073
-0.30985001 0.243 -1.4067
-0.30745 0.24289 -1.4061
-0.30473 0.24245 -1.4036
-0.30265 0.24268 -1.4049
-0.30024999 0.24257 -1.4043
-0.29863 0.24331 -1.4085
-0.29653001 0.24353001 -1.4098001
-0.29427999 0.24359 -1.4102
-0.29172999 0.24332 -1.4086
-0.28933999 0.2432 -1.4079
-0.2868 0.24292 -1.4062999
-0.28485 0.24332 -1.4086
-0.28259999 0.24337 -1.4089
-0.28035 0.24343 -1.4092
-0.27810001 0.24348 -1.4095
-0.27586001 0.24354 -1.4098001
-0.27347001 0.24342 -1.4092
-0.27109 0.24330001 -1.4085
-0.26870999 0.24319001 -1.4078
-0.26646 0.24324 -1.4081
-0.26435 0.24346 -1.4094
-0.26210001 0.24349999 -1.4097
-0.25997001 0.24372 -1.4109
-0.25771999 0.24377 -1.4112
-0.25558999 0.24399 -1.4124
-0.25310001 0.2437 -1.4108
-0.25060999 0.24339999 -1.4091001
-0.24824999 0.24327999 -1.4084001
-0.24600001 0.24332 -1.4086
-0.24386001 0.24354 -1.4098001
-0.24150001 0.24341001 -1.4091001
-0.23926 0.24345 -1.4094
-0.2369 0.24333 -1.4086
-0.23476 0.24354 -1.4098001
-0.2323 0.24324 -1.4081
-0.22995 0.24311 -1.4074
-0.22750001 0.24281 -1.4056
-0.22566 0.24353001 -1.4098001
-0.22330999 0.24338999 -1.409
-0.22126 0.24377 -1.4112
-0.219 0.24381 -1.4114
-0.21657 0.24349999 -1.4097
-0.21414 0.2432 -1.4079
-0.21189 0.24323 -1.4081
-0.20956001 0.2431 -1.4073
-0.20535 0.23923001 -1.3849
-0.12619001 0.24286 -1.4059
-0.12401 0.24338 -1.4089
-0.12175 0.24321 -1.408
-0.11952 0.24338999 -1.409
-0.11727 0.24339999 -1.409
-0.11506 0.24391 -1.4119999
-0.1128 0.24375001 -1.4111
-0.11055 0.24375001 -1.4111
-0.10829 0.24359 -1.4101
-0.10604 0.24359 -1.4102
-0.10379 0.24359 -1.4102
-0.10154 0.24376 -1.4112
-0.099285997 0.24325 -1.4082
-0.097039998 0.2436 -1.4102
-0.094792001 0.24342 -1.4092
-0.092540003 0.24359 -1.4102
-0.090301 0.24325 -1.4082
-0.088055 0.24325 -1.4082
-0.085809 0.24325 -1.4082
-0.083541997 0.24358 -1.4101
-0.081303999 0.24341001 -1.4091001
-0.079084001 0.24305999 -1.4071
-0.076808996 0.24339999 -1.409
-0.074525997 0.24372999 -1.411
-0.072274998 0.24372999 -1.4109
-0.070023999 0.24372 -1.4109
-0.067795999 0.24354 -1.4099
-0.065546997 0.24353001 -1.4098001
-0.063323997 0.24335 -1.4088
-0.061131999 0.243 -1.4067
-0.058917999 0.24281999 -1.4057
-0.056614 0.24315 -1.4076
-0.054336 0.24330001 -1.4085
-0.052088998 0.24329001 -1.4084001
-0.049842998 0.24327999 -1.4083
-0.047596 0.24326 -1.4083
-0.045310002 0.24342 -1.4092
-0.043104 0.24323 -1.4081
-0.040814001 0.24338999 -1.409
-0.038520999 0.24354 -1.4099
-0.036224999 0.24369 -1.4107
-0.034023002 0.24349999 -1.4097
-0.031925999 0.24297 -1.4066
-0.029579001 0.24330001 -1.4084001
-0.027224001 0.24360999 -1.4103
-0.02503 0.24342 -1.4092
-0.022782 0.24339999 -1.4091001
-0.020533999 0.24338 -1.4089
-0.018226 0.24353001 -1.4098001
-0.015914001 0.24367 -1.4105999
-0.013535 0.24399 -1.4125
-0.011281 0.24395999 -1.4123
-0.0092318999 0.24343 -1.4092
-0.0071235001 0.24305999 -1.4071
-0.0045934999 0.24371 -1.4109
-0.0023427 0.24369 -1.4107
-0.00016716 0.24349 -1.4096
0.0020045999 0.24329001 -1.4084001
0.0043294998 0.24343 -1.4092
0.0065774 0.24339999 -1.409
0.0087430002 0.2432 -1.4079
0.011072 0.24334 -1.4087
0.013319 0.24330001 -1.4085
0.015827 0.24378 -1.4112
0.017812001 0.24324 -1.4081
0.020058 0.2432 -1.4079
0.022211 0.243 -1.4067
0.024642 0.24330001 -1.4085
0.026985001 0.24343 -1.4092
0.02933 0.24357 -1.41
0.031578999 0.24353001 -1.4098001
0.033828001 0.24349 -1.4096
0.036077 0.24345 -1.4093
0.038325001 0.24341001 -1.4091001
0.040465999 0.2432 -1.4079
0.042927999 0.24349999 -1.4096
0.045286 0.24361999 -1.4104
0.047536001 0.24358 -1.4101
0.049445 0.24303 -1.4069
0.051688999 0.24299 -1.4067
0.054281998 0.24345 -1.4093
0.056529999 0.24339999 -1.4091001
0.058897998 0.24353001 -1.4098001
0.061147001 0.24348 -1.4095
0.063395001 0.24343 -1.4093
0.065517999 0.24322 -1.408
0.067890003 0.24334 -1.4087
0.070266001 0.24346 -1.4094
0.072644003 0.24358 -1.4101
0.074894004 0.24352001 -1.4098001
0.077142 0.24347 -1.4095
0.079662003 0.24376 -1.4111
0.081638001 0.24337 -1.4089
0.084302999 0.24382 -1.4115
0.086836003 0.2441 -1.4131
0.089376003 0.24439 -1.4148
0.091344997 0.24399 -1.4125
0.093160003 0.24343 -1.4092
0.095555998 0.24354 -1.4099
0.097805001 0.24349 -1.4096
0.10066 0.2441 -1.4131
0.10291 0.24404 -1.4128
0.10532 0.24415 -1.4134001
0.10758 0.24409001 -1.413
0.10951 0.24369 -1.4107
0.11161 0.24346 -1.4094
0.11401 0.24357 -1.41
0.11643 0.24367 -1.4105999
0.11868 0.24360999 -1.4103
0.12076 0.24338 -1.4089
0.12301 0.24331 -1.4085
0.12542 0.24341001 -1.4091001
0.12767 0.24335 -1.4088
0.12992001 0.24327999 -1.4084001
0.13252001 0.24355 -1.4099
0.13459 0.24331 -1.4085
0.13700999 0.24341001 -1.4091001
0.1389 0.24301 -1.4068
0.14187001 0.2436 -1.4102
0.14375 0.2432 -1.4079
0.14674 0.2438 -1.4112999
0.14899001 0.24372 -1.4109
0.15124001 0.24365 -1.4105
0.15368 0.24374001 -1.411
0.15613 0.24383 -1.4116
0.15857001 0.24393 -1.4121
0.16102 0.24402 -1.4126
0.16328 0.24394 -1.4122
0.16532999 0.2437 -1.4108
0.16757999 0.24361999 -1.4103
0.16982999 0.24354 -1.4099
0.17186999 0.24329001 -1.4084001
0.17453 0.24355 -1.4099
0.17699 0.24363001 -1.4104
0.17986999 0.24405 -1.4128
0.18233 0.24413 -1.4133
0.18395001 0.24355 -1.4099
0.18598001 0.24330001 -1.4085
0.18822999 0.24322 -1.408
0.19135 0.24379 -1.4112999
0.19382 0.24387001 -1.4118
0.19585 0.24361999 -1.4103
0.19787 0.24337 -1.4089
0.2008 0.24378 -1.4112
0.20305 0.24369 -1.4107
0.2053 0.2436 -1.4102
0.20778 0.24368 -1.4105999
0.20979001 0.24342 -1.4092
0.21204001 0.24333 -1.4086
0.21428999 0.24324 -1.4081
0.21724001 0.24364001 -1.4104
0.22093 0.24454001 -1.4155999
0.22246 0.24394999 -1.4122
0.22496 0.24402 -1.4126
0.22697 0.24376 -1.4111
0.22946 0.24382 -1.4115
0.23172 0.24372999 -1.4109
0.23422 0.24379 -1.4112999
0.23672 0.24386001 -1.4117
0.23921999 0.24392 -1.4121
0.24173 0.24399 -1.4125
0.24372999 0.24372 -1.4109
0.24649 0.24394999 -1.4122
0.24848001 0.24368 -1.4107
0.25099 0.24375001 -1.4111
0.25351 0.24381 -1.4114
0.25602001 0.24387001 -1.4118
0.25881001 0.24409001 -1.413
0.26052999 0.24365 -1.4105
0.26357999 0.24404 -1.4128
0.26556 0.24377 -1.4112
0.26809001 0.24382 -1.4115
0.27006999 0.24355 -1.4099
0.27230999 0.24344 -1.4093
0.27484 0.24349999 -1.4096
0.27737001 0.24355 -1.4099
0.27990001 0.2436 -1.4102
0.28242999 0.24365 -1.4105
0.28525001 0.24386001 -1.4117
0.28806999 0.24408001 -1.413
0.29032001 0.24395999 -1.4123
0.29286 0.24401 -1.4126
0.29512 0.24389 -1.4119
0.29736999 0.24378 -1.4112
0.29962 0.24366 -1.4105999
0.30217001 0.2437 -1.4108
0.30500999 0.24391 -1.4119999
0.30667001 0.24347 -1.4094
0.30891001 0.24335 -1.4087
0.31297001 0.24420001 -1.4137
0.31553 0.24424 -1.4139
0.31779 0.24411 -1.4132
0.31974 0.24383 -1.4115
0.32199001 0.24371 -1.4108
0.32517001 0.24406999 -1.4129
0.32710999 0.24378 -1.4112
0.32872999 0.24333 -1.4086
0.33098 0.2432 -1.4079
0.33449 0.24372 -1.4109
0.33737999 0.24391 -1.4119999
0.33963999 0.24378 -1.4112999
0.34220999 0.24382 -1.4115
0.34446001 0.24369 -1.4107
0.34735999 0.24388 -1.4118
0.34961 0.24374001 -1.411
0.35218999 0.24377 -1.4112
0.35444 0.24364001 -1.4104
0.35668999 0.24349999 -1.4096
0.35960999 0.24369 -1.4107
0.36252999 0.24387001 -1.4118
0.36546001 0.24405999 -1.4129
0.36770999 0.24392 -1.4121
0.36962 0.24361999 -1.4103
0.37221 0.24364001 -1.4105
0.37515 0.24382 -1.4115
0.37808999 0.244 -1.4125
0.38034001 0.24386001 -1.4117
0.38260001 0.24372 -1.4109
0.38415 0.24326 -1.4082
0.38674 0.24326999 -1.4083
0.39004999 0.24360999 -1.4102
0.39230001 0.24346 -1.4094
0.39489999 0.24347 -1.4095
0.39715001 0.24333 -1.4086
0.40084001 0.24381 -1.4115
0.40417001 0.24414 -1.4134001
0.40643001 0.24399 -1.4125
0.40904 0.244 -1.4125
0.41203001 0.24417 -1.4135
0.41464999 0.24417 -1.4135
0.41654 0.24386001 -1.4117
0.41879001 0.24371 -1.4109
0.42140999 0.24372 -1.4109
0.42366001 0.24356 -1.41
0.42704001 0.24388 -1.4118
0.42929 0.24372 -1.4109
0.43154001 0.24357 -1.41
0.43417001 0.24357 -1.41
0.43757001 0.24388 -1.4118
0.43944001 0.24356 -1.41
0.81059998 0.28858 -1.6706001
0.80976999 0.28727999 -1.6631
0.81397998 0.28744999 -1.6641001
0.81668001 0.28718001 -1.6625
0.82424998 0.28622001 -1.6569
0.83875 0.28413001 -1.6447999
-0.75525999 0.24366 -1.4018
-0.75439 0.24432001 -1.4056
-0.75168997 0.24436 -1.4058
-0.74855 0.24425 -1.4052
-0.74585003 0.24428999 -1.4054
-0.74316001 0.24433 -1.4056
-0.74046999 0.24437 -1.4059
-0.73822999 0.24457 -1.4069999
-0.73465002 0.24429999 -1.4054
-0.73018998 0.24372 -1.4021
-0.72750998 0.24375001 -1.4023
-0.72482997 0.24379 -1.4025
-0.72522998 0.2449 -1.4089
-0.72341001 0.24524 -1.4109
-0.72029001 0.24512 -1.4102
-0.71587002 0.24453001 -1.4068
-0.71449 0.24503 -1.4096
-0.71095002 0.24474999 -1.408
-0.70656002 0.24416 -1.4046
-0.70389003 0.24417999 -1.4048001
-0.70165002 0.24437 -1.4058
-0.69854999 0.24424 -1.4051
-0.69462001 0.24379 -1.4025
-0.69195998 0.24382 -1.4026999
-0.69139999 0.24462 -1.4073
-0.68915999 0.24479 -1.4083
-0.68690997 0.24496999 -1.4093
-0.68259001 0.24437 -1.4058
-0.67992997 0.24439 -1.4059
-0.67769003 0.24456 -1.4069
-0.67502999 0.24458 -1.4069999
-0.67237997 0.24459 -1.4071
-0.66973001 0.24461 -1.4072
-0.66706997 0.24462 -1.4073
-0.66442001 0.24463999 -1.4074
-0.66218001 0.24481 -1.4084001
-0.65912998 0.24466 -1.4075
-0.65609002 0.24450999 -1.4067
-0.65344 0.24451999 -1.4067
-0.65158999 0.24484999 -1.4086
-0.64815998 0.24454001 -1.4068
-0.64512998 0.24439 -1.406
-0.64210999 0.24424 -1.4051
-0.63947999 0.24424 -1.4051
-0.63723999 0.24439999 -1.406
-0.63461 0.24440999 -1.4061
-0.63198 0.24440999 -1.4061
-0.62974 0.24457 -1.4069999
-0.62787002 0.24489 -1.4088
-0.62524003 0.24489 -1.4088
-0.62261999 0.24489 -1.4088
-0.61962003 0.24472 -1.4079
-0.61662 0.24456 -1.4069999
-0.61475003 0.24488001 -1.4088
-0.61212999 0.24487001 -1.4087
-0.60951 0.24487001 -1.4087
-0.60652 0.2447 -1.4078
-0.60427999 0.24484999 -1.4086
-0.60092998 0.24453001 -1.4067
-0.59868997 0.24468 -1.4076
-0.59608001 0.24467 -1.4076
-0.59384 0.24482 -1.4084001
-0.59195 0.24512 -1.4102
-0.58933997 0.24511001 -1.4101
-0.58673 0.24510001 -1.41
-0.58376998 0.24492 -1.409
-0.58047003 0.24459 -1.4071
-0.57822001 0.24473 -1.4079
-0.57458001 0.24423 -1.4051
-0.57269001 0.24454001 -1.4068
-0.57078999 0.24484 -1.4085
-0.56923002 0.24529999 -1.4112
-0.56731999 0.2456 -1.4129
-0.56471997 0.24558 -1.4128
-0.56212997 0.24556001 -1.4127001
-0.55751002 0.24457 -1.4069999
-0.5546 0.24439 -1.4059
-0.55234998 0.24451999 -1.4067
-0.54978001 0.2445 -1.4066
-0.54819 0.24495 -1.4092
-0.54693002 0.24557 -1.4128
-0.54466999 0.24571 -1.4136
-0.54176998 0.24552 -1.4125
-0.53789002 0.24484 -1.4086
-0.53531998 0.24481 -1.4084001
-0.53307003 0.24494 -1.4091001
-0.52986997 0.24458 -1.4071
-0.52825999 0.24504 -1.4097
-0.52569002 0.245 -1.4095
-0.52344 0.24513 -1.4102
-0.51994002 0.24461 -1.4072
-0.51801002 0.2449 -1.4089
-0.51576 0.24502 -1.4096
-0.51319999 0.24498001 -1.4094
-0.50972998 0.24446 -1.4062999
-0.50717998 0.24442001 -1.4061
-0.50432998 0.24421 -1.4049
-0.50178999 0.24417 -1.4047
-0.49955001 0.24428999 -1.4054
-0.4982 0.2449 -1.4089
-0.49595001 0.24502 -1.4096
-0.4937 0.24514 -1.4103
-0.49057001 0.24477001 -1.4081
-0.48802999 0.24472 -1.4079
-0.48550001 0.24467 -1.4076
-0.48324999 0.24479 -1.4083
-0.48100999 0.2449 -1.4089
-0.47876 0.24502 -1.4096
-0.47679001 0.24529999 -1.4112
-0.47426 0.24524 -1.4109
-0.47117001 0.24485999 -1.4087
-0.46864 0.24481 -1.4084001
-0.46695 0.24525 -1.4109
-0.46469 0.24536 -1.4115
-0.46217 0.24530999 -1.4112
-0.45910001 0.24492 -1.409
-0.45659 0.24485999 -1.4087
-0.45407 0.2448 -1.4084001
-0.45155999 0.24474999 -1.408
-0.44905001 0.24469 -1.4076999
-0.44679999 0.24479 -1.4083
-0.44455001 0.2449 -1.4089
-0.44205001 0.24483 -1.4085
-0.44005999 0.24510001 -1.4101
-0.43755001 0.24504 -1.4097
-0.43555 0.24530999 -1.4112
-0.43305001 0.24524 -1.4109
-0.43055001 0.24518 -1.4105
-0.42805001 0.24511001 -1.4101
-0.4253 0.24488001 -1.4088
-0.42280999 0.24481 -1.4084001
-0.42105001 0.24524 -1.4108
-0.41855001 0.24517 -1.4104
-0.41606 0.24510001 -1.41
-0.41356999 0.24503 -1.4096
-0.41132 0.24512 -1.4102
-0.40931001 0.24538 -1.4117
-0.40682 0.24530999 -1.4112
-0.40457001 0.2454 -1.4118
-0.40209001 0.24532001 -1.4112999
-0.3996 0.24525 -1.4109
-0.39667001 0.24484 -1.4085
-0.39443001 0.24493 -1.409
-0.3924 0.24518 -1.4105
-0.39081001 0.24577001 -1.4139
-0.38789999 0.24536 -1.4115
-0.38543001 0.24528 -1.4111
-0.38273999 0.24503 -1.4096
-0.38027999 0.24495 -1.4092
-0.37803 0.24503 -1.4096
-0.37599 0.24528 -1.4111
-0.37332001 0.24503 -1.4096
-0.37169001 0.24561 -1.413
-0.36923 0.24552999 -1.4125
-0.36697 0.24561 -1.413
-0.36410999 0.24518999 -1.4105
-0.36186001 0.24527 -1.411
-0.35960999 0.24534 -1.4115
-0.35734999 0.24541999 -1.4119
-0.35490999 0.24533001 -1.4114
-0.35264999 0.24541 -1.4118
-0.35021001 0.24532001 -1.4112999
-0.34775999 0.24522001 -1.4108
-0.34531999 0.24513 -1.4102
-0.34251001 0.2447 -1.4076999
-0.34062999 0.24511001 -1.4101
-0.33802 0.24484999 -1.4086
-0.33594999 0.24508999 -1.41
-0.33352 0.24499001 -1.4094
-0.33144999 0.24523 -1.4108
-0.32973 0.2458 -1.4141001
-0.32747 0.24586999 -1.4145
-0.32486999 0.2456 -1.4129
-0.32210001 0.24516 -1.4104
-0.32001001 0.2454 -1.4118
-0.31742001 0.24513 -1.4102
-0.31516999 0.24518999 -1.4105999
-0.31292 0.24526 -1.411
-0.31033999 0.24499001 -1.4094
-0.30825999 0.24522001 -1.4107
-0.30568001 0.24494 -1.4091001
-0.30359 0.24517 -1.4105
-0.30134001 0.24524 -1.4108
-0.29925001 0.24547 -1.4122
-0.29699001 0.24552999 -1.4125
-0.29473999 0.24559 -1.4128
-0.29218 0.24530999 -1.4112
-0.28992999 0.24536 -1.4116
-0.28768 0.24541999 -1.4119
-0.28527999 0.24530999 -1.4112
-0.28288999 0.24518999 -1.4105999
-0.28062999 0.24525 -1.4109
-0.27866 0.24563999 -1.4132
-0.27586001 0.24502 -1.4096
-0.27415001 0.24575 -1.4138
-0.27136001 0.24512 -1.4102
-0.26936999 0.24552 -1.4124
-0.26697999 0.2454 -1.4118
-0.26473001 0.24545 -1.4119999
-0.26247999 0.2455 -1.4123
-0.26010001 0.24538 -1.4116
-0.25797001 0.24559 -1.4129
-0.25571001 0.24563999 -1.4132
-0.25334001 0.24552 -1.4125
-0.25097001 0.2454 -1.4118
-0.24871001 0.24544001 -1.4119999
-0.24623001 0.24515 -1.4103
-0.24398001 0.24518999 -1.4105999
-0.24173 0.24523 -1.4108
-0.23958001 0.24545 -1.4119999
-0.23733 0.24549 -1.4123
-0.23497 0.24536 -1.4116
-0.23272 0.2454 -1.4118
-0.23036 0.24527 -1.411
-0.22801 0.24514 -1.4103
-0.22596 0.24552 -1.4125
-0.22351 0.24522001 -1.4107
-0.22135 0.24542999 -1.4119
-0.2191 0.24546 -1.4121
-0.21694 0.24567001 -1.4133
-0.21459 0.24552999 -1.4125
-0.21234 0.24557 -1.4127001
-0.20991001 0.24526 -1.411
-0.20552 0.24102999 -1.3866
-0.12627999 0.24502 -1.4096
-0.12408 0.24537 -1.4116
-0.12184 0.24555001 -1.4126
-0.11959 0.24556001 -1.4127001
-0.1174 0.24625 -1.4167
-0.11512 0.24608 -1.4157
-0.11287 0.24626 -1.4167
-0.11058 0.24575 -1.4138
-0.10833 0.24593 -1.4148
-0.10605 0.24541999 -1.4119
-0.1038 0.24541999 -1.4119
-0.10155 0.24541999 -1.4119
-0.099293001 0.24541999 -1.4119
-0.097039998 0.24559 -1.4129
-0.094788 0.24525 -1.4109
-0.092526004 0.24575999 -1.4139
-0.090279996 0.24541999 -1.4119
-0.088019997 0.24559 -1.4129
-0.085790999 0.24507 -1.4099
-0.083521001 0.24541 -1.4118
-0.081267998 0.2454 -1.4118
-0.079015002 0.2454 -1.4118
-0.076746002 0.24557 -1.4127001
-0.074491002 0.24556001 -1.4127001
-0.072218001 0.24572 -1.4136
-0.069960997 0.24572 -1.4136
-0.067704998 0.24571 -1.4135
-0.065472998 0.24552999 -1.4125
-0.063166998 0.24586 -1.4144
-0.060908999 0.24585 -1.4144
-0.058711 0.2455 -1.4123
-0.05652 0.24514 -1.4103
-0.054269999 0.24513 -1.4102
-0.051984999 0.24529 -1.4111
-0.049695998 0.24544001 -1.4119999
-0.047403999 0.2456 -1.4129
-0.045148998 0.24559 -1.4128
-0.042895 0.24557 -1.4128
-0.04064 0.24555001 -1.4127001
-0.038385 0.24553999 -1.4126
-0.036037002 0.24586 -1.4144
-0.033778999 0.24584 -1.4143
-0.031521998 0.24582 -1.4141999
-0.029317001 0.24563 -1.4131
-0.027062001 0.24561 -1.413
-0.024807001 0.24559 -1.4129
-0.022552 0.24557 -1.4127001
-0.020357 0.24537 -1.4116
-0.018043 0.24552 -1.4125
-0.015789 0.2455 -1.4123
-0.01347 0.24563999 -1.4132
-0.011149 0.24579 -1.414
-0.0089600002 0.24559 -1.4129
-0.0067051998 0.24557 -1.4127001
-0.0044506001 0.24553999 -1.4126
-0.0023427 0.24517 -1.4105
-1.7263999e-05 0.24530999 -1.4112999
0.0023113999 0.24545 -1.4121
0.0048000999 0.24594 -1.4148999
0.0070584002 0.24590001 -1.4147
0.0091525 0.24552999 -1.4125
0.011407 0.2455 -1.4124
0.013746 0.24563999 -1.4131
0.016000999 0.2456 -1.413
0.018167 0.2454 -1.4118
0.02042 0.24536 -1.4116
0.022673 0.24533001 -1.4114
0.025018999 0.24546 -1.4121
0.027272001 0.24542999 -1.4119
0.029525001 0.24539 -1.4117
0.031679001 0.24518 -1.4105
0.034030002 0.24530999 -1.4112999
0.036385 0.24544001 -1.4119999
0.038743 0.24557 -1.4128
0.040996999 0.24552999 -1.4125
0.043251 0.24549 -1.4123
0.045724999 0.24579 -1.414
